-0.068886 -0.121170 0.520166 
-0.073406 -0.124642 0.521039 
-0.078617 -0.126377 0.521335 
-0.083702 -0.127604 0.521701 
-0.086358 -0.124763 0.521083 
-0.093767 -0.118913 0.520619 
-0.096016 -0.115296 0.519633 
-0.101100 -0.109147 0.518815 
-0.094717 -0.101025 0.514883 
-0.087478 -0.097671 0.513253 
-0.076238 -0.095536 0.512076 
-0.071823 -0.099400 0.512880 
-0.065186 -0.099004 0.512567 
-0.061598 -0.109491 0.515888 
-0.062405 -0.116777 0.518673 
-0.062912 -0.124456 0.522032 
-0.070080 -0.129274 0.522793 
-0.077657 -0.132047 0.522818 
-0.085399 -0.135059 0.523302 
-0.089375 -0.130370 0.522332 
-0.099217 -0.120771 0.521998 
-0.101728 -0.116425 0.516949 
-0.107881 -0.108264 0.515630 
-0.098470 -0.098485 0.510451 
-0.090280 -0.091965 0.508058 
-0.074776 -0.089544 0.506768 
-0.069022 -0.095226 0.507907 
-0.060670 -0.095195 0.507589 
-0.057129 -0.109161 0.511834 
-0.055497 -0.118457 0.515838 
-0.058579 -0.127805 0.519770 
-0.066375 -0.135435 0.521528 
-0.076778 -0.138915 0.520933 
-0.086913 -0.141895 0.520845 
-0.092109 -0.136101 0.519707 
-0.105745 -0.123798 0.520218 
-0.104675 -0.118055 0.511070 
-0.110334 -0.109225 0.509289 
-0.101040 -0.097660 0.504157 
-0.091523 -0.090802 0.501820 
-0.074258 -0.087676 0.500339 
-0.067367 -0.093341 0.501395 
-0.057477 -0.093106 0.500937 
-0.051827 -0.109129 0.505455 
-0.052076 -0.120396 0.509831 
-0.054543 -0.131738 0.514545 
-0.064733 -0.139666 0.515987 
-0.076348 -0.144475 0.515944 
-0.087866 -0.146274 0.515501 
-0.093037 -0.138840 0.513999 
-0.110944 -0.127074 0.515119 
-0.107050 -0.121540 0.496991 
-0.112340 -0.112271 0.495007 
-0.103071 -0.099348 0.490779 
-0.092549 -0.092629 0.488653 
-0.074490 -0.089403 0.487133 
-0.068526 -0.097475 0.488750 
-0.058567 -0.096751 0.488121 
-0.052251 -0.112362 0.491798 
-0.051907 -0.123884 0.495209 
-0.054785 -0.135569 0.498871 
-0.064424 -0.144536 0.501265 
-0.076657 -0.149612 0.502320 
-0.088672 -0.150437 0.502428 
-0.094916 -0.144445 0.501234 
-0.112266 -0.130953 0.499931 
-0.106713 -0.124930 0.482265 
-0.112189 -0.115919 0.480368 
-0.102008 -0.104235 0.477038 
-0.092484 -0.097550 0.475030 
-0.075256 -0.093454 0.473332 
-0.069043 -0.100734 0.474567 
-0.059646 -0.100688 0.473891 
-0.052548 -0.115889 0.476774 
-0.053898 -0.127153 0.480003 
-0.055583 -0.138935 0.483440 
-0.066590 -0.145805 0.485755 
-0.077807 -0.149763 0.487203 
-0.088739 -0.151843 0.488038 
-0.093834 -0.144790 0.486482 
-0.111398 -0.133954 0.484638 
-0.102753 -0.127435 0.470046 
-0.109272 -0.119544 0.468377 
-0.100347 -0.109093 0.465533 
-0.091488 -0.104087 0.463930 
-0.076880 -0.101086 0.462394 
-0.071179 -0.106453 0.462993 
-0.063356 -0.106915 0.462106 
-0.057012 -0.119926 0.464161 
-0.056346 -0.129861 0.467143 
-0.060545 -0.139141 0.470591 
-0.069204 -0.145558 0.473284 
-0.078799 -0.149561 0.475062 
-0.088519 -0.152101 0.476051 
-0.092974 -0.145359 0.474373 
-0.107775 -0.135367 0.472041 
-0.098777 -0.129177 0.461267 
-0.102746 -0.123226 0.459850 
-0.097440 -0.114253 0.457436 
-0.090643 -0.109179 0.455826 
-0.078378 -0.107989 0.454510 
-0.073985 -0.112693 0.454960 
-0.067287 -0.112598 0.453694 
-0.063005 -0.123434 0.455605 
-0.061863 -0.131382 0.458091 
-0.065216 -0.138810 0.461397 
-0.071519 -0.144881 0.464338 
-0.079861 -0.147448 0.465957 
-0.087744 -0.149479 0.466840 
-0.091332 -0.143842 0.465234 
-0.102107 -0.135210 0.462803 
-0.095807 -0.130237 0.455850 
-0.098593 -0.125563 0.454630 
-0.094352 -0.118705 0.452646 
-0.088680 -0.115990 0.451545 
-0.079946 -0.114852 0.450262 
-0.076338 -0.117502 0.450341 
-0.071137 -0.117408 0.449176 
-0.068014 -0.125860 0.450914 
-0.068667 -0.131779 0.453237 
-0.070251 -0.137416 0.455720 
-0.075008 -0.141621 0.458097 
-0.080929 -0.143909 0.459581 
-0.086799 -0.145389 0.460366 
-0.089346 -0.140881 0.458964 
-0.098583 -0.135102 0.457183 
-0.090328 -0.130496 0.452947 
-0.092505 -0.127761 0.452211 
-0.089703 -0.123972 0.450925 
-0.086713 -0.121927 0.450062 
-0.081438 -0.121186 0.449175 
-0.079605 -0.123398 0.449545 
-0.076740 -0.123357 0.448986 
-0.075299 -0.128117 0.450264 
-0.075336 -0.131401 0.451450 
-0.075514 -0.135028 0.452836 
-0.078836 -0.136971 0.454112 
-0.082163 -0.138107 0.454929 
-0.085395 -0.138724 0.455406 
-0.087166 -0.137019 0.454919 
-0.091651 -0.133043 0.453790 
-0.083375 -0.130036 0.452277 
-0.083345 -0.130084 0.452290 
-0.083393 -0.130153 0.452319 
-0.083446 -0.130189 0.452337 
-0.083538 -0.130195 0.452349 
-0.083576 -0.130169 0.452345 
-0.083626 -0.130167 0.452350 
-0.083657 -0.130081 0.452324 
-0.083657 -0.130019 0.452303 
-0.083642 -0.129957 0.452281 
-0.083588 -0.129918 0.452262 
-0.083529 -0.129892 0.452247 
-0.083466 -0.129874 0.452234 
-0.083434 -0.129915 0.452244 
-0.083350 -0.129989 0.452259 
-0.114251 -0.002093 0.414952 
-0.110400 -0.003197 0.414464 
-0.110540 -0.008694 0.413208 
-0.112228 -0.012515 0.412544 
-0.116628 -0.016424 0.412223 
-0.119535 -0.016443 0.412549 
-0.122190 -0.018584 0.412490 
-0.127001 -0.015277 0.413786 
-0.129321 -0.012022 0.414773 
-0.130733 -0.008209 0.415729 
-0.130087 -0.003855 0.416403 
-0.127599 -0.000187 0.416668 
-0.124829 0.003050 0.416916 
-0.121678 0.002171 0.416423 
-0.114349 0.001700 0.415832 
-0.110398 0.000480 0.418070 
-0.104589 -0.001390 0.417388 
-0.104867 -0.009852 0.415116 
-0.106536 -0.016355 0.413784 
-0.114074 -0.022345 0.413376 
-0.118744 -0.022391 0.413901 
-0.122983 -0.025643 0.413867 
-0.130750 -0.020571 0.416084 
-0.134864 -0.015583 0.417953 
-0.136912 -0.009268 0.419693 
-0.134688 -0.002556 0.420321 
-0.130979 0.003030 0.420500 
-0.126681 0.007649 0.420669 
-0.122117 0.007163 0.420144 
-0.111005 0.005743 0.419502 
-0.105314 0.004698 0.418738 
-0.097900 0.001293 0.417605 
-0.096447 -0.010975 0.413648 
-0.101535 -0.019490 0.412174 
-0.111335 -0.028964 0.411444 
-0.118057 -0.029779 0.412046 
-0.124156 -0.032844 0.412277 
-0.134823 -0.025469 0.415510 
-0.141104 -0.018979 0.418558 
-0.145114 -0.010164 0.421835 
-0.142624 0.000190 0.422724 
-0.136987 0.008994 0.422323 
-0.130084 0.015626 0.421926 
-0.122940 0.013093 0.420859 
-0.105510 0.013616 0.421664 
-0.100915 0.009365 0.415093 
-0.090189 0.005208 0.413572 
-0.088525 -0.011414 0.407892 
-0.094264 -0.023705 0.405997 
-0.108814 -0.035395 0.405578 
-0.117888 -0.035267 0.406545 
-0.125900 -0.040571 0.406580 
-0.140817 -0.031582 0.410746 
-0.148197 -0.021968 0.415042 
-0.152977 -0.010301 0.419535 
-0.148786 0.002866 0.420013 
-0.141533 0.013751 0.419080 
-0.133385 0.022983 0.418425 
-0.124423 0.021029 0.417357 
-0.101346 0.021000 0.419116 
-0.098953 0.012824 0.407759 
-0.084976 0.008795 0.406034 
-0.085522 -0.010813 0.400205 
-0.092507 -0.024195 0.398508 
-0.107789 -0.038452 0.397816 
-0.118179 -0.038285 0.398893 
-0.127378 -0.044541 0.398869 
-0.142845 -0.032022 0.403322 
-0.153061 -0.023035 0.407817 
-0.157989 -0.009488 0.412374 
-0.152750 0.005206 0.412912 
-0.147090 0.019702 0.413195 
-0.135734 0.027971 0.411708 
-0.125931 0.027565 0.410710 
-0.099983 0.025603 0.411647 
-0.100481 0.015762 0.390080 
-0.087572 0.011248 0.388157 
-0.088436 -0.008152 0.384290 
-0.091285 -0.023546 0.382063 
-0.108187 -0.038856 0.381396 
-0.119848 -0.035228 0.383079 
-0.129431 -0.044900 0.382499 
-0.147237 -0.032683 0.386448 
-0.155798 -0.020879 0.389955 
-0.160074 -0.006689 0.393344 
-0.155726 0.008398 0.394964 
-0.149304 0.022884 0.396003 
-0.138320 0.032807 0.395771 
-0.127405 0.028655 0.394064 
-0.101614 0.028917 0.392847 
-0.102420 0.018418 0.372068 
-0.091133 0.013311 0.370150 
-0.091116 -0.005354 0.367097 
-0.095686 -0.019186 0.365388 
-0.110625 -0.034481 0.364498 
-0.121577 -0.032932 0.365603 
-0.130869 -0.039657 0.365188 
-0.147516 -0.027880 0.368302 
-0.155049 -0.016773 0.371256 
-0.161020 -0.003885 0.374474 
-0.158106 0.011400 0.376881 
-0.147908 0.022461 0.377569 
-0.139452 0.033773 0.378328 
-0.129223 0.031324 0.376797 
-0.104651 0.029965 0.374121 
-0.107841 0.017339 0.357213 
-0.095042 0.014538 0.355409 
-0.094601 -0.002824 0.352690 
-0.100622 -0.014716 0.351415 
-0.114190 -0.027233 0.350595 
-0.123576 -0.026055 0.351248 
-0.131596 -0.031585 0.350440 
-0.147307 -0.023233 0.352415 
-0.153706 -0.012868 0.355556 
-0.158666 -0.001266 0.358941 
-0.154084 0.011692 0.361462 
-0.148649 0.024007 0.363346 
-0.139023 0.031172 0.363367 
-0.130384 0.029864 0.361974 
-0.108583 0.028756 0.358941 
-0.112555 0.015907 0.346576 
-0.102888 0.013334 0.344987 
-0.102175 -0.000284 0.342773 
-0.107093 -0.009616 0.341693 
-0.117537 -0.020169 0.340544 
-0.125127 -0.019749 0.340793 
-0.131519 -0.022270 0.340165 
-0.144307 -0.016592 0.341466 
-0.149765 -0.008332 0.344348 
-0.152204 0.001231 0.347574 
-0.150206 0.011651 0.350381 
-0.143943 0.019930 0.351732 
-0.138241 0.028202 0.352513 
-0.130729 0.025594 0.350852 
-0.113282 0.025029 0.347968 
-0.116932 0.013816 0.340037 
-0.109547 0.011891 0.338695 
-0.110426 0.001812 0.337067 
-0.113229 -0.005074 0.336040 
-0.120461 -0.013672 0.334693 
-0.126418 -0.011930 0.335226 
-0.131404 -0.016574 0.333908 
-0.139703 -0.009353 0.336026 
-0.144277 -0.003913 0.338034 
-0.146768 0.002997 0.340610 
-0.145515 0.010890 0.343079 
-0.141329 0.017755 0.344519 
-0.136136 0.022888 0.344889 
-0.130576 0.021107 0.343572 
-0.117362 0.020838 0.341215 
-0.121956 0.010386 0.336724 
-0.118507 0.008941 0.335951 
-0.118454 0.003476 0.334806 
-0.119957 -0.000424 0.334091 
-0.123991 -0.005390 0.333175 
-0.127348 -0.004833 0.333485 
-0.130078 -0.006131 0.333206 
-0.134795 -0.002674 0.334444 
-0.137728 0.000218 0.335541 
-0.138845 0.004280 0.336976 
-0.137723 0.008520 0.338226 
-0.135683 0.012359 0.339101 
-0.132983 0.015630 0.339561 
-0.129774 0.014644 0.338829 
-0.122259 0.014262 0.337556 
-0.128455 0.004903 0.336270 
-0.128526 0.004926 0.336283 
-0.128523 0.005029 0.336310 
-0.128502 0.005107 0.336329 
-0.128415 0.005181 0.336339 
-0.128357 0.005173 0.336331 
-0.128309 0.005204 0.336334 
-0.128217 0.005147 0.336309 
-0.128169 0.005087 0.336288 
-0.128134 0.005014 0.336265 
-0.128166 0.004936 0.336248 
-0.128203 0.004865 0.336233 
-0.128253 0.004801 0.336222 
-0.128314 0.004822 0.336234 
-0.128458 0.004822 0.336249 
-0.015618 -0.012247 0.397427 
-0.013409 -0.010587 0.397025 
-0.010567 -0.013071 0.396227 
-0.008768 -0.015398 0.395741 
-0.008416 -0.019678 0.395613 
-0.010069 -0.021130 0.395991 
-0.010181 -0.023294 0.396047 
-0.013780 -0.024813 0.396966 
-0.016590 -0.024832 0.397696 
-0.019411 -0.024038 0.398409 
-0.020949 -0.021296 0.398652 
-0.022395 -0.018641 0.398906 
-0.022730 -0.015783 0.398936 
-0.020869 -0.014522 0.398522 
-0.017685 -0.010749 0.397992 
-0.015382 -0.009010 0.399472 
-0.012027 -0.006930 0.398886 
-0.007289 -0.010195 0.397398 
-0.005262 -0.014248 0.396742 
-0.004493 -0.020654 0.396496 
-0.006218 -0.023349 0.396897 
-0.006741 -0.026585 0.397079 
-0.012687 -0.028065 0.398660 
-0.016766 -0.028038 0.399845 
-0.020892 -0.026949 0.401027 
-0.023971 -0.023448 0.401572 
-0.025757 -0.019088 0.401670 
-0.026501 -0.014652 0.401661 
-0.023790 -0.012571 0.401079 
-0.018724 -0.006312 0.400589 
-0.015542 -0.004590 0.399753 
-0.010262 -0.000753 0.398972 
-0.003481 -0.006438 0.396305 
-0.000260 -0.012446 0.395302 
0.000413 -0.022027 0.395127 
-0.002454 -0.025777 0.395767 
-0.002333 -0.031335 0.395843 
-0.011309 -0.034172 0.398374 
-0.017693 -0.033855 0.400542 
-0.023890 -0.031813 0.402612 
-0.028881 -0.026630 0.403424 
-0.031276 -0.019785 0.402955 
-0.032794 -0.012984 0.402657 
-0.028521 -0.009827 0.401811 
-0.020406 -0.000920 0.401655 
-0.016260 -0.000553 0.397045 
-0.009453 0.004125 0.395912 
-0.000743 -0.003198 0.392398 
0.004886 -0.010432 0.390983 
0.005113 -0.023513 0.391036 
0.001285 -0.028545 0.391848 
0.001252 -0.035794 0.391955 
-0.010597 -0.039838 0.395206 
-0.019207 -0.040004 0.398483 
-0.027527 -0.036846 0.401484 
-0.032977 -0.028922 0.401656 
-0.036064 -0.020348 0.400850 
-0.037606 -0.011908 0.400136 
-0.033302 -0.007469 0.399303 
-0.022321 0.003115 0.399292 
-0.017368 0.002160 0.391997 
-0.009913 0.006129 0.390479 
0.001117 -0.000488 0.386800 
0.004964 -0.010125 0.385958 
0.006565 -0.024215 0.385777 
0.002964 -0.030240 0.386537 
0.001596 -0.037194 0.386889 
-0.011275 -0.041219 0.390094 
-0.020580 -0.042159 0.393302 
-0.030334 -0.039695 0.396753 
-0.037263 -0.031063 0.397436 
-0.040958 -0.020882 0.396602 
-0.042097 -0.011002 0.395611 
-0.035481 -0.006860 0.394368 
-0.024831 0.007495 0.394714 
-0.019742 0.002881 0.379883 
-0.011775 0.007747 0.378315 
0.000041 0.000437 0.375456 
0.005160 -0.009422 0.374511 
0.005454 -0.024602 0.374607 
0.000858 -0.030371 0.375525 
0.000275 -0.038186 0.375685 
-0.013045 -0.043490 0.378490 
-0.023084 -0.043411 0.381010 
-0.033173 -0.040448 0.383582 
-0.039443 -0.031034 0.384435 
-0.042645 -0.020916 0.384455 
-0.044407 -0.011084 0.384307 
-0.038720 -0.006379 0.383154 
-0.027655 0.008291 0.381828 
-0.022094 0.001864 0.367427 
-0.014153 0.007704 0.365850 
-0.003506 -0.000907 0.363761 
0.000823 -0.010272 0.363004 
0.002134 -0.024444 0.362865 
-0.002296 -0.029992 0.363627 
-0.002789 -0.037613 0.363587 
-0.016078 -0.041144 0.365948 
-0.025365 -0.042980 0.368010 
-0.034889 -0.039578 0.370301 
-0.040463 -0.030294 0.371484 
-0.045716 -0.021117 0.372473 
-0.045252 -0.011657 0.372168 
-0.040982 -0.006593 0.371199 
-0.029600 0.006631 0.368868 
-0.023928 -0.001057 0.357244 
-0.017269 0.003267 0.355862 
-0.008562 -0.004048 0.354256 
-0.002487 -0.010861 0.353131 
-0.001480 -0.024100 0.352920 
-0.007343 -0.028218 0.353729 
-0.006386 -0.036143 0.353047 
-0.018441 -0.040302 0.354777 
-0.026905 -0.040021 0.356978 
-0.034920 -0.036664 0.359342 
-0.040223 -0.028996 0.360973 
-0.044487 -0.020808 0.362093 
-0.045064 -0.012423 0.362066 
-0.039329 -0.008893 0.360699 
-0.030431 0.002964 0.358393 
-0.025225 -0.004041 0.349953 
-0.019860 -0.001201 0.348764 
-0.012618 -0.006699 0.347380 
-0.008638 -0.012612 0.346575 
-0.007247 -0.023010 0.346011 
-0.011182 -0.026795 0.346386 
-0.011455 -0.032444 0.345717 
-0.021045 -0.035187 0.347265 
-0.027552 -0.034746 0.349180 
-0.034256 -0.033245 0.351385 
-0.039220 -0.027454 0.353328 
-0.040409 -0.020169 0.353976 
-0.042217 -0.013669 0.354339 
-0.038229 -0.010516 0.353214 
-0.030359 -0.001608 0.350902 
-0.025936 -0.008264 0.345525 
-0.021724 -0.004825 0.344466 
-0.015882 -0.009056 0.343252 
-0.013512 -0.014060 0.342672 
-0.012908 -0.021739 0.342110 
-0.015724 -0.024497 0.342391 
-0.015997 -0.028534 0.341830 
-0.022786 -0.031293 0.342954 
-0.027827 -0.030725 0.344588 
-0.032889 -0.029502 0.346415 
-0.035947 -0.024751 0.347951 
-0.038600 -0.019835 0.349048 
-0.038488 -0.014894 0.349019 
-0.035841 -0.012414 0.348204 
-0.029889 -0.005595 0.346319 
-0.026208 -0.012477 0.343315 
-0.023832 -0.010731 0.342696 
-0.020505 -0.013077 0.341858 
-0.019222 -0.015913 0.341447 
-0.018670 -0.020267 0.341001 
-0.020153 -0.021942 0.341191 
-0.020724 -0.023872 0.341086 
-0.024382 -0.025710 0.341811 
-0.027336 -0.025458 0.342740 
-0.030039 -0.024331 0.343745 
-0.032118 -0.022026 0.344652 
-0.032911 -0.019078 0.345102 
-0.033812 -0.016197 0.345453 
-0.031812 -0.014904 0.344871 
-0.028487 -0.010861 0.343891 
-0.025962 -0.018355 0.343111 
-0.026006 -0.018388 0.343121 
-0.026060 -0.018336 0.343139 
-0.026086 -0.018289 0.343149 
-0.026103 -0.018210 0.343159 
-0.026067 -0.018184 0.343150 
-0.026072 -0.018136 0.343155 
-0.025994 -0.018122 0.343133 
-0.025942 -0.018120 0.343119 
-0.025891 -0.018136 0.343104 
-0.025851 -0.018177 0.343090 
-0.025830 -0.018231 0.343081 
-0.025824 -0.018286 0.343076 
-0.025860 -0.018310 0.343084 
-0.025920 -0.018387 0.343097 
-0.083098 0.112232 0.349869 
-0.083690 0.111006 0.349487 
-0.083876 0.108093 0.348784 
-0.086045 0.106315 0.348045 
-0.089434 0.107285 0.347799 
-0.090282 0.105276 0.347234 
-0.092257 0.102371 0.346337 
-0.095672 0.102551 0.345985 
-0.098339 0.104557 0.346179 
-0.098650 0.107450 0.346851 
-0.097103 0.109743 0.347548 
-0.097889 0.111327 0.347881 
-0.099453 0.113049 0.348222 
-0.100435 0.116115 0.349007 
-0.097184 0.117624 0.349558 
-0.095985 0.119645 0.350155 
-0.092818 0.120241 0.350514 
-0.090422 0.118622 0.350336 
-0.089316 0.116319 0.349912 
-0.087559 0.116931 0.350276 
-0.085039 0.117120 0.350678 
-0.082898 0.114861 0.350509 
-0.078193 0.112062 0.352982 
-0.079965 0.110242 0.352165 
-0.079180 0.105527 0.351160 
-0.083086 0.103141 0.349899 
-0.088051 0.104378 0.349438 
-0.089371 0.101210 0.348539 
-0.092476 0.097296 0.347276 
-0.098011 0.096458 0.346444 
-0.102073 0.100024 0.346852 
-0.102162 0.104854 0.348054 
-0.099818 0.108324 0.349122 
-0.100820 0.110726 0.349700 
-0.104541 0.113485 0.350381 
-0.104893 0.117877 0.351775 
-0.100031 0.120281 0.352452 
-0.098370 0.123720 0.353469 
-0.093354 0.124481 0.353777 
-0.089643 0.121970 0.353410 
-0.087566 0.118987 0.352934 
-0.085212 0.119374 0.353358 
-0.081860 0.119251 0.353906 
-0.077929 0.116149 0.354028 
-0.071165 0.112368 0.354428 
-0.073391 0.109654 0.353079 
-0.072963 0.102861 0.351306 
-0.078867 0.099576 0.349339 
-0.085533 0.100605 0.348539 
-0.087900 0.096703 0.347340 
-0.092412 0.089683 0.345279 
-0.100690 0.089145 0.344178 
-0.106253 0.095086 0.344880 
-0.106757 0.101800 0.346525 
-0.103652 0.106784 0.348063 
-0.105739 0.110403 0.349009 
-0.109614 0.114395 0.350330 
-0.112179 0.121561 0.353293 
-0.103373 0.124267 0.353382 
-0.101810 0.130922 0.355514 
-0.093694 0.130671 0.355001 
-0.088142 0.127376 0.354428 
-0.085384 0.122353 0.353600 
-0.081677 0.123281 0.354410 
-0.075480 0.124001 0.355940 
-0.071931 0.118101 0.355676 
-0.063700 0.113314 0.352566 
-0.066138 0.109676 0.350715 
-0.065761 0.100618 0.348032 
-0.073060 0.095636 0.345380 
-0.082432 0.097160 0.344358 
-0.086090 0.092968 0.342968 
-0.091974 0.084183 0.340459 
-0.102162 0.084686 0.339331 
-0.109543 0.091372 0.339869 
-0.110749 0.099533 0.341716 
-0.106470 0.106151 0.343762 
-0.109331 0.110814 0.344967 
-0.116249 0.116284 0.347022 
-0.117343 0.125122 0.350820 
-0.106306 0.128962 0.350798 
-0.104461 0.138085 0.353810 
-0.093595 0.137411 0.352623 
-0.086556 0.132261 0.351621 
-0.082413 0.126994 0.351009 
-0.077747 0.127876 0.351999 
-0.069879 0.128602 0.354047 
-0.064855 0.120937 0.354224 
-0.059039 0.114688 0.347156 
-0.063617 0.110714 0.344781 
-0.062299 0.100594 0.342178 
-0.069185 0.094014 0.339406 
-0.080473 0.096291 0.338382 
-0.084559 0.091332 0.336828 
-0.091291 0.082562 0.334271 
-0.103121 0.081342 0.332608 
-0.112140 0.088592 0.332970 
-0.112916 0.098749 0.335166 
-0.107563 0.106554 0.337545 
-0.109756 0.111901 0.338807 
-0.118328 0.118011 0.340645 
-0.119066 0.127770 0.344308 
-0.108975 0.134229 0.345619 
-0.104676 0.141561 0.347651 
-0.093037 0.142009 0.347208 
-0.084998 0.136484 0.346326 
-0.080342 0.130276 0.345646 
-0.074963 0.131365 0.346736 
-0.066968 0.131490 0.348508 
-0.059772 0.123592 0.349229 
-0.055876 0.117591 0.332845 
-0.060658 0.113314 0.331015 
-0.058050 0.102087 0.328823 
-0.068719 0.097513 0.326392 
-0.078756 0.098578 0.325336 
-0.082207 0.091266 0.323457 
-0.089733 0.082959 0.320939 
-0.102365 0.081673 0.319166 
-0.111549 0.090020 0.319568 
-0.112912 0.100355 0.321482 
-0.107581 0.108520 0.323870 
-0.109442 0.114439 0.325007 
-0.118045 0.121025 0.325923 
-0.117706 0.130957 0.328621 
-0.107052 0.136909 0.330612 
-0.103991 0.146856 0.333215 
-0.091380 0.145115 0.333471 
-0.083204 0.139721 0.333086 
-0.078762 0.132821 0.332249 
-0.072984 0.134382 0.333324 
-0.065673 0.133917 0.334357 
-0.055828 0.127197 0.334941 
-0.054953 0.120423 0.317877 
-0.060655 0.116282 0.316308 
-0.057477 0.105354 0.314506 
-0.068106 0.101188 0.312356 
-0.077344 0.101737 0.311312 
-0.081472 0.097071 0.309874 
-0.088041 0.088187 0.307370 
-0.099708 0.086998 0.305657 
-0.107739 0.095420 0.305823 
-0.110508 0.103783 0.306940 
-0.104760 0.111838 0.309567 
-0.106719 0.117320 0.310476 
-0.113001 0.123226 0.310931 
-0.114884 0.133233 0.313091 
-0.103910 0.138040 0.315513 
-0.101421 0.148081 0.317990 
-0.089668 0.148048 0.319311 
-0.081961 0.140873 0.318697 
-0.077651 0.134674 0.317927 
-0.072018 0.136347 0.318903 
-0.065053 0.135904 0.319618 
-0.056778 0.129165 0.319354 
-0.057481 0.122536 0.305252 
-0.062407 0.118868 0.303986 
-0.061433 0.109986 0.302335 
-0.067937 0.104601 0.300477 
-0.077433 0.106443 0.299615 
-0.080456 0.100780 0.298070 
-0.086593 0.093315 0.295830 
-0.097212 0.092160 0.293999 
-0.105048 0.099319 0.293356 
-0.106136 0.108191 0.294791 
-0.101466 0.115012 0.297424 
-0.104018 0.119824 0.298080 
-0.109265 0.125213 0.298422 
-0.111215 0.134369 0.300551 
-0.101144 0.138729 0.303363 
-0.098523 0.147182 0.305745 
-0.088035 0.145764 0.306917 
-0.081344 0.140483 0.306532 
-0.077012 0.135901 0.305987 
-0.072697 0.136456 0.306533 
-0.066628 0.136085 0.307009 
-0.060105 0.129927 0.306407 
-0.063574 0.123835 0.295736 
-0.065049 0.120864 0.294970 
-0.063787 0.113129 0.293507 
-0.070886 0.109775 0.291933 
-0.078706 0.111820 0.291257 
-0.080534 0.106243 0.289772 
-0.085514 0.099911 0.287692 
-0.093816 0.100191 0.286015 
-0.100402 0.105252 0.285067 
-0.100284 0.113039 0.286860 
-0.097597 0.117886 0.288890 
-0.098718 0.121893 0.289721 
-0.104635 0.126413 0.289540 
-0.105709 0.133776 0.291614 
-0.096737 0.136365 0.294343 
-0.094454 0.142155 0.296368 
-0.086748 0.142341 0.297659 
-0.081116 0.139442 0.297629 
-0.078407 0.133900 0.296555 
-0.074487 0.135105 0.297236 
-0.068776 0.135489 0.297774 
-0.062996 0.130339 0.297120 
-0.068495 0.124605 0.289778 
-0.070332 0.122448 0.289085 
-0.068913 0.116696 0.287933 
-0.073454 0.113667 0.286645 
-0.079558 0.115331 0.286064 
-0.081170 0.111666 0.284903 
-0.084819 0.107884 0.283313 
-0.091070 0.106789 0.281537 
-0.095882 0.110767 0.280928 
-0.095907 0.116496 0.282433 
-0.093732 0.120238 0.284179 
-0.095110 0.123209 0.284694 
-0.098177 0.126484 0.284864 
-0.099941 0.132219 0.286313 
-0.093969 0.134994 0.288737 
-0.091492 0.138251 0.290282 
-0.085881 0.139678 0.291706 
-0.081684 0.135973 0.291250 
-0.079415 0.132401 0.290554 
-0.076797 0.132869 0.290985 
-0.071835 0.133742 0.291657 
-0.068561 0.129291 0.290854 
-0.074668 0.124814 0.286327 
-0.076113 0.123546 0.285800 
-0.075899 0.120471 0.285030 
-0.078157 0.118662 0.284204 
-0.081548 0.119595 0.283833 
-0.082415 0.117452 0.283087 
-0.084469 0.114508 0.281872 
-0.087988 0.114754 0.281052 
-0.090661 0.117019 0.280914 
-0.090916 0.120071 0.281732 
-0.089384 0.122376 0.282852 
-0.090236 0.124022 0.283138 
-0.091907 0.125868 0.283279 
-0.093212 0.129283 0.284059 
-0.089389 0.130390 0.285384 
-0.088633 0.133355 0.286509 
-0.085086 0.133064 0.287114 
-0.082607 0.131680 0.287118 
-0.081506 0.129098 0.286532 
-0.079689 0.129759 0.287003 
-0.077146 0.129920 0.287390 
-0.075092 0.127494 0.286982 
-0.084718 0.124313 0.284560 
-0.084702 0.124336 0.284570 
-0.084707 0.124392 0.284585 
-0.084666 0.124427 0.284604 
-0.084606 0.124414 0.284612 
-0.084586 0.124443 0.284626 
-0.084549 0.124492 0.284647 
-0.084486 0.124495 0.284661 
-0.084439 0.124452 0.284658 
-0.084428 0.124402 0.284646 
-0.084460 0.124357 0.284626 
-0.084447 0.124327 0.284620 
-0.084410 0.124293 0.284617 
-0.084391 0.124231 0.284603 
-0.084458 0.124208 0.284583 
-0.084474 0.124157 0.284565 
-0.084538 0.124166 0.284554 
-0.084581 0.124198 0.284554 
-0.084607 0.124228 0.284558 
-0.084635 0.124225 0.284551 
-0.084681 0.124222 0.284540 
-0.084721 0.124264 0.284545 
-0.136002 0.008876 0.315271 
-0.134204 0.008973 0.314994 
-0.132331 0.012080 0.314105 
-0.128836 0.010530 0.313955 
-0.126844 0.008100 0.314242 
-0.124579 0.008753 0.313838 
-0.120690 0.009402 0.313269 
-0.118427 0.006485 0.313722 
-0.117606 0.003055 0.314499 
-0.119775 0.000641 0.315349 
-0.122638 0.000015 0.315791 
-0.123542 -0.001601 0.316327 
-0.123476 -0.004253 0.317109 
-0.125244 -0.007056 0.318158 
-0.128923 -0.005633 0.318002 
-0.131743 -0.007180 0.318718 
-0.134553 -0.004715 0.318222 
-0.135047 -0.001581 0.317438 
-0.134519 0.000895 0.316778 
-0.136458 0.001820 0.316790 
-0.137883 0.003565 0.316593 
-0.138413 0.007090 0.315969 
-0.140795 0.013719 0.317680 
-0.137782 0.013759 0.317092 
-0.134305 0.017749 0.315728 
-0.129078 0.016273 0.315174 
-0.125992 0.011602 0.315738 
-0.122428 0.012843 0.315039 
-0.116438 0.013805 0.314172 
-0.112210 0.009616 0.314708 
-0.112246 0.003945 0.316130 
-0.114484 0.000177 0.317401 
-0.119513 -0.000661 0.318121 
-0.120793 -0.003205 0.319024 
-0.120311 -0.007774 0.320578 
-0.123192 -0.012212 0.322607 
-0.129242 -0.010498 0.322278 
-0.133633 -0.012106 0.323180 
-0.137530 -0.007630 0.321847 
-0.138985 -0.003349 0.320756 
-0.137786 0.000679 0.319646 
-0.140026 0.002145 0.319608 
-0.144116 0.005003 0.319675 
-0.144317 0.010595 0.318863 
-0.145849 0.018138 0.317724 
-0.142321 0.018927 0.316722 
-0.137717 0.025848 0.314391 
-0.129589 0.022072 0.313616 
-0.124931 0.016498 0.314115 
-0.119531 0.018169 0.313115 
-0.110733 0.019292 0.311979 
-0.104083 0.013157 0.312697 
-0.104571 0.004495 0.314798 
-0.108469 -0.001015 0.316727 
-0.115939 -0.002151 0.317785 
-0.116762 -0.006559 0.319348 
-0.116765 -0.012587 0.321820 
-0.120862 -0.019205 0.325520 
-0.129844 -0.016713 0.324534 
-0.136040 -0.018345 0.325531 
-0.142800 -0.013327 0.323604 
-0.143890 -0.006099 0.321457 
-0.142239 -0.000300 0.319937 
-0.146438 0.001798 0.320092 
-0.151279 0.006012 0.320307 
-0.152121 0.014506 0.319783 
-0.153983 0.024347 0.314488 
-0.147992 0.024302 0.312610 
-0.140808 0.031561 0.309280 
-0.130564 0.028919 0.307929 
-0.124312 0.020005 0.309000 
-0.117327 0.022025 0.307808 
-0.106373 0.023030 0.306589 
-0.098623 0.014915 0.307619 
-0.094888 0.004489 0.309580 
-0.101779 -0.003164 0.312259 
-0.111907 -0.004715 0.313705 
-0.113823 -0.010082 0.315687 
-0.113139 -0.018730 0.319364 
-0.118860 -0.027098 0.324531 
-0.130633 -0.022054 0.321938 
-0.139040 -0.026050 0.324170 
-0.148116 -0.019539 0.321218 
-0.149439 -0.009851 0.318263 
-0.147811 -0.002260 0.316480 
-0.153696 0.000587 0.316739 
-0.159792 0.006309 0.317160 
-0.158310 0.016576 0.316439 
-0.157584 0.025512 0.307363 
-0.151042 0.025718 0.305510 
-0.143622 0.035504 0.301680 
-0.131439 0.031569 0.300591 
-0.124500 0.020248 0.302203 
-0.116551 0.023122 0.300807 
-0.102365 0.026138 0.298960 
-0.093197 0.016275 0.300227 
-0.091823 0.003470 0.302802 
-0.098211 -0.005283 0.305519 
-0.110578 -0.006817 0.307117 
-0.111823 -0.013553 0.309304 
-0.111899 -0.022669 0.312840 
-0.118710 -0.031148 0.317455 
-0.131584 -0.027140 0.315954 
-0.140703 -0.030282 0.317652 
-0.152078 -0.024582 0.315484 
-0.152458 -0.012605 0.312005 
-0.151915 -0.004402 0.310261 
-0.156054 -0.000936 0.310132 
-0.161861 0.005003 0.310205 
-0.163042 0.017101 0.309675 
-0.159102 0.022168 0.290622 
-0.151997 0.021996 0.289578 
-0.145123 0.032904 0.286367 
-0.132752 0.029673 0.285670 
-0.125566 0.017875 0.287446 
-0.117674 0.020269 0.286245 
-0.104497 0.022251 0.284735 
-0.093453 0.013720 0.285567 
-0.093403 0.000376 0.288207 
-0.099166 -0.008496 0.290605 
-0.111452 -0.010089 0.292130 
-0.113525 -0.016354 0.293829 
-0.112351 -0.027121 0.296653 
-0.119057 -0.037914 0.300681 
-0.133097 -0.032300 0.299848 
-0.142941 -0.035944 0.301591 
-0.153478 -0.027882 0.299903 
-0.155529 -0.016691 0.297349 
-0.154220 -0.007717 0.295375 
-0.158213 -0.004112 0.295040 
-0.166858 0.002239 0.294803 
-0.165888 0.014332 0.292937 
-0.159938 0.018261 0.273935 
-0.152444 0.017611 0.273361 
-0.144985 0.026141 0.270910 
-0.133910 0.024635 0.270232 
-0.126940 0.014281 0.271745 
-0.118951 0.017059 0.270475 
-0.107243 0.017606 0.269392 
-0.098000 0.008997 0.270264 
-0.094587 -0.003038 0.271923 
-0.101049 -0.011942 0.274135 
-0.111766 -0.013925 0.275839 
-0.115060 -0.019545 0.277386 
-0.114725 -0.029008 0.279396 
-0.121099 -0.038984 0.282504 
-0.134290 -0.034309 0.282794 
-0.144182 -0.038981 0.284785 
-0.152696 -0.028896 0.283292 
-0.156273 -0.019646 0.281544 
-0.152872 -0.010422 0.279259 
-0.159724 -0.007436 0.279168 
-0.165537 -0.001489 0.278375 
-0.166374 0.010438 0.276078 
-0.157535 0.012496 0.260668 
-0.151257 0.012287 0.260235 
-0.145007 0.020863 0.257913 
-0.134660 0.017629 0.257700 
-0.128682 0.008612 0.258987 
-0.121264 0.012050 0.257571 
-0.110878 0.012357 0.256556 
-0.102966 0.004401 0.257067 
-0.101487 -0.006544 0.258154 
-0.106212 -0.014183 0.259913 
-0.116557 -0.015343 0.261971 
-0.117856 -0.021056 0.263259 
-0.117294 -0.029887 0.264902 
-0.123410 -0.037807 0.267718 
-0.135095 -0.034039 0.268729 
-0.143109 -0.035950 0.270206 
-0.152669 -0.030357 0.270117 
-0.153849 -0.020457 0.267969 
-0.152271 -0.012850 0.266033 
-0.156589 -0.010031 0.265701 
-0.161797 -0.005005 0.264852 
-0.161361 0.004732 0.262613 
-0.152467 0.005498 0.251592 
-0.148810 0.006640 0.251055 
-0.143422 0.013256 0.249130 
-0.135006 0.009967 0.249050 
-0.130123 0.003818 0.249779 
-0.124983 0.004650 0.248974 
-0.115690 0.006383 0.247529 
-0.109284 -0.000212 0.247534 
-0.107486 -0.009108 0.247998 
-0.113622 -0.014941 0.250053 
-0.120820 -0.016029 0.251921 
-0.121106 -0.021206 0.252898 
-0.120547 -0.028829 0.254180 
-0.125947 -0.034694 0.256761 
-0.135462 -0.030857 0.258031 
-0.141899 -0.032508 0.259572 
-0.149057 -0.027485 0.259536 
-0.149429 -0.019538 0.257618 
-0.148433 -0.013878 0.256064 
-0.152854 -0.011823 0.255949 
-0.157125 -0.007776 0.255179 
-0.157178 0.000339 0.253122 
-0.149016 0.000862 0.246103 
-0.145005 0.000501 0.245831 
-0.141253 0.005624 0.244234 
-0.135117 0.003497 0.244013 
-0.131514 -0.001224 0.244514 
-0.127258 0.000203 0.243573 
-0.120658 0.000779 0.242412 
-0.114993 -0.003809 0.241970 
-0.114416 -0.010812 0.242518 
-0.119352 -0.015105 0.244377 
-0.123928 -0.016249 0.245801 
-0.125649 -0.019155 0.246775 
-0.125204 -0.024543 0.247647 
-0.128699 -0.029391 0.249628 
-0.135635 -0.027453 0.251037 
-0.140661 -0.028968 0.252513 
-0.145240 -0.023988 0.252192 
-0.146404 -0.018791 0.251026 
-0.145634 -0.014414 0.249754 
-0.149100 -0.012814 0.249745 
-0.152315 -0.009664 0.249170 
-0.152506 -0.003329 0.247450 
-0.142263 -0.005787 0.243937 
-0.140474 -0.005600 0.243642 
-0.138572 -0.002179 0.242544 
-0.134940 -0.003370 0.242274 
-0.132808 -0.006233 0.242531 
-0.130437 -0.005686 0.241973 
-0.126768 -0.005465 0.241206 
-0.123867 -0.008163 0.241024 
-0.123263 -0.011932 0.241456 
-0.125820 -0.014394 0.242542 
-0.128589 -0.015031 0.243387 
-0.129319 -0.016919 0.243942 
-0.129276 -0.019876 0.244512 
-0.131449 -0.022276 0.245607 
-0.135310 -0.021672 0.246491 
-0.138320 -0.022779 0.247471 
-0.141307 -0.020076 0.247453 
-0.141745 -0.016675 0.246667 
-0.141099 -0.014012 0.245867 
-0.142535 -0.013015 0.245850 
-0.145043 -0.011169 0.245731 
-0.144778 -0.007656 0.244752 
-0.134131 -0.012788 0.244256 
-0.134174 -0.012784 0.244264 
-0.134215 -0.012837 0.244285 
-0.134280 -0.012818 0.244294 
-0.134318 -0.012761 0.244290 
-0.134360 -0.012770 0.244301 
-0.134439 -0.012789 0.244322 
-0.134488 -0.012734 0.244320 
-0.134500 -0.012664 0.244306 
-0.134445 -0.012619 0.244285 
-0.134398 -0.012605 0.244272 
-0.134384 -0.012570 0.244261 
-0.134383 -0.012518 0.244249 
-0.134344 -0.012470 0.244230 
-0.134273 -0.012486 0.244219 
-0.134221 -0.012470 0.244204 
-0.134169 -0.012519 0.244204 
-0.134162 -0.012580 0.244217 
-0.134172 -0.012626 0.244229 
-0.134143 -0.012644 0.244227 
-0.134107 -0.012677 0.244227 
-0.134109 -0.012738 0.244241 
-0.137174 0.096690 0.256864 
-0.136639 0.095079 0.256560 
-0.133808 0.092735 0.255937 
-0.134680 0.089120 0.255476 
-0.137820 0.086904 0.255494 
-0.136594 0.084405 0.255031 
-0.135756 0.080288 0.254416 
-0.138505 0.077053 0.254349 
-0.142606 0.076796 0.254852 
-0.145342 0.079133 0.255509 
-0.146222 0.081941 0.255955 
-0.148258 0.082609 0.256344 
-0.151673 0.082173 0.256881 
-0.154881 0.084246 0.257706 
-0.153210 0.088536 0.257811 
-0.154155 0.091324 0.258263 
-0.152004 0.094585 0.258251 
-0.148486 0.095100 0.257815 
-0.145908 0.095094 0.257495 
-0.144866 0.096382 0.257550 
-0.143023 0.099073 0.257749 
-0.139188 0.099362 0.257465 
-0.131943 0.102597 0.260226 
-0.131658 0.099266 0.259514 
-0.127315 0.095325 0.258412 
-0.128909 0.089515 0.257528 
-0.133726 0.085972 0.257462 
-0.132370 0.082235 0.256805 
-0.130609 0.075479 0.255755 
-0.135701 0.071740 0.255888 
-0.141551 0.070277 0.256489 
-0.145796 0.074016 0.257565 
-0.147162 0.078339 0.258270 
-0.150008 0.079767 0.258929 
-0.154737 0.079339 0.259863 
-0.160837 0.081749 0.261643 
-0.157865 0.088536 0.261427 
-0.159947 0.093032 0.262293 
-0.156514 0.098274 0.262025 
-0.151130 0.099493 0.261308 
-0.146720 0.098929 0.260699 
-0.145142 0.101689 0.260942 
-0.142201 0.104722 0.261215 
-0.136555 0.104551 0.260876 
-0.126589 0.109191 0.261131 
-0.126672 0.103969 0.259750 
-0.119683 0.098844 0.258013 
-0.120436 0.090559 0.256424 
-0.128109 0.085024 0.256288 
-0.127163 0.079761 0.255468 
-0.124674 0.069983 0.254023 
-0.131320 0.063098 0.253940 
-0.140354 0.060892 0.254785 
-0.146936 0.066291 0.256422 
-0.148755 0.073957 0.257590 
-0.153310 0.075546 0.258670 
-0.160247 0.075075 0.260392 
-0.167336 0.079414 0.263090 
-0.164953 0.088930 0.262849 
-0.169005 0.095997 0.264514 
-0.162556 0.103310 0.263133 
-0.155029 0.105758 0.262045 
-0.148123 0.104256 0.261096 
-0.145742 0.107709 0.261436 
-0.141512 0.112145 0.262074 
-0.132506 0.113745 0.262460 
-0.122112 0.115623 0.257679 
-0.122566 0.108648 0.255670 
-0.111645 0.103174 0.253308 
-0.114718 0.091756 0.251363 
-0.124720 0.084817 0.251323 
-0.120320 0.076732 0.249853 
-0.120116 0.065830 0.248607 
-0.126850 0.053974 0.247997 
-0.139664 0.052943 0.249231 
-0.148209 0.060776 0.251330 
-0.150631 0.070287 0.252798 
-0.156361 0.072596 0.254176 
-0.167631 0.070059 0.257079 
-0.176537 0.076682 0.261041 
-0.171282 0.089721 0.259611 
-0.177596 0.099139 0.262173 
-0.169664 0.109355 0.260038 
-0.158449 0.111029 0.258169 
-0.149615 0.108757 0.257037 
-0.146754 0.114019 0.257626 
-0.141045 0.122355 0.259097 
-0.129654 0.121633 0.259475 
-0.120697 0.119073 0.250172 
-0.119166 0.113235 0.248548 
-0.107736 0.106056 0.245736 
-0.111654 0.092942 0.243874 
-0.122380 0.085019 0.243878 
-0.118671 0.076348 0.242484 
-0.115892 0.062028 0.240690 
-0.125380 0.050543 0.240383 
-0.139669 0.048692 0.241575 
-0.149510 0.057161 0.243743 
-0.151967 0.069166 0.245437 
-0.159145 0.070618 0.246850 
-0.171259 0.068583 0.249616 
-0.179456 0.076776 0.252935 
-0.176854 0.090789 0.252869 
-0.182134 0.101224 0.254969 
-0.172739 0.112134 0.252931 
-0.160319 0.113684 0.251082 
-0.151521 0.114125 0.250324 
-0.148038 0.120511 0.250966 
-0.141486 0.126717 0.251887 
-0.128703 0.126381 0.252223 
-0.120747 0.122923 0.232489 
-0.120269 0.115515 0.231223 
-0.107643 0.108554 0.228946 
-0.112387 0.094706 0.227612 
-0.122723 0.086471 0.227647 
-0.120111 0.077969 0.226469 
-0.115546 0.061979 0.224391 
-0.127135 0.052726 0.224477 
-0.141026 0.048914 0.225270 
-0.151344 0.057325 0.227203 
-0.153871 0.069914 0.228913 
-0.161878 0.070802 0.230006 
-0.173985 0.069475 0.231720 
-0.183817 0.077675 0.234419 
-0.179551 0.092670 0.234948 
-0.185913 0.103800 0.237011 
-0.174050 0.113685 0.235889 
-0.163803 0.118560 0.235088 
-0.153017 0.115705 0.233780 
-0.149416 0.120535 0.234025 
-0.143000 0.129621 0.234709 
-0.130125 0.128889 0.234037 
-0.122760 0.124413 0.214140 
-0.122549 0.116787 0.213249 
-0.111826 0.109202 0.211388 
-0.116040 0.096256 0.210365 
-0.124609 0.088302 0.210295 
-0.123383 0.080542 0.209337 
-0.121103 0.067426 0.207759 
-0.128845 0.054707 0.207069 
-0.143256 0.054255 0.207803 
-0.153156 0.059293 0.209091 
-0.155385 0.072332 0.211105 
-0.162380 0.074120 0.212001 
-0.172851 0.073398 0.212983 
-0.185158 0.079586 0.215310 
-0.180747 0.094483 0.216621 
-0.185059 0.104853 0.218292 
-0.175927 0.115713 0.218457 
-0.164217 0.118372 0.217477 
-0.154138 0.115552 0.216144 
-0.150952 0.121171 0.216393 
-0.145009 0.127612 0.216460 
-0.132811 0.128456 0.215464 
-0.127302 0.121957 0.199065 
-0.126493 0.115852 0.198393 
-0.118903 0.108069 0.196855 
-0.121433 0.097291 0.195949 
-0.129340 0.090408 0.195899 
-0.127926 0.083579 0.194956 
-0.125659 0.071885 0.193421 
-0.133024 0.061610 0.192599 
-0.145145 0.058759 0.192347 
-0.153989 0.065390 0.193782 
-0.156185 0.075721 0.195909 
-0.161852 0.078201 0.196816 
-0.172153 0.076565 0.197404 
-0.180645 0.083115 0.199540 
-0.177955 0.095744 0.201427 
-0.180764 0.104506 0.203030 
-0.173641 0.114165 0.203588 
-0.163029 0.115672 0.202538 
-0.155041 0.114997 0.201502 
-0.152194 0.120224 0.201673 
-0.146763 0.126784 0.201587 
-0.136002 0.125880 0.200313 
-0.133313 0.116778 0.188267 
-0.131937 0.112740 0.187724 
-0.124791 0.106901 0.186343 
-0.126125 0.097961 0.185475 
-0.134952 0.092351 0.185597 
-0.132643 0.086494 0.184565 
-0.131295 0.077282 0.183153 
-0.136644 0.067775 0.181863 
-0.147193 0.067748 0.181792 
-0.154221 0.071655 0.182828 
-0.155624 0.081261 0.185255 
-0.160970 0.081889 0.185793 
-0.168010 0.081831 0.186353 
-0.176103 0.086285 0.188251 
-0.173874 0.096618 0.190359 
-0.174987 0.103392 0.191801 
-0.170787 0.112065 0.192749 
-0.161475 0.112610 0.191590 
-0.154851 0.111377 0.190520 
-0.152803 0.116589 0.190814 
-0.148449 0.120767 0.190569 
-0.139746 0.120665 0.189388 
-0.138080 0.112322 0.181663 
-0.137683 0.108632 0.181206 
-0.132294 0.104452 0.180053 
-0.133631 0.097871 0.179342 
-0.138963 0.093690 0.179244 
-0.137307 0.089178 0.178338 
-0.135690 0.081511 0.176895 
-0.140913 0.075642 0.175909 
-0.148590 0.075025 0.175825 
-0.153800 0.078838 0.177010 
-0.155140 0.085065 0.178793 
-0.158768 0.086321 0.179402 
-0.164364 0.085979 0.179766 
-0.170943 0.089186 0.181309 
-0.168107 0.097043 0.183086 
-0.171232 0.102706 0.184750 
-0.165498 0.107867 0.185033 
-0.159346 0.108919 0.184322 
-0.154571 0.108582 0.183565 
-0.152882 0.111934 0.183770 
-0.149583 0.115524 0.183664 
-0.142939 0.115382 0.182645 
-0.144093 0.105603 0.178305 
-0.144188 0.103213 0.177957 
-0.140415 0.101304 0.177182 
-0.141349 0.097423 0.176659 
-0.144521 0.095033 0.176567 
-0.143545 0.092439 0.175962 
-0.142707 0.088125 0.175007 
-0.146021 0.085505 0.174640 
-0.149996 0.084474 0.174611 
-0.152973 0.086482 0.175340 
-0.153813 0.089960 0.176327 
-0.155910 0.090768 0.176726 
-0.159411 0.090417 0.176955 
-0.162002 0.092834 0.177880 
-0.161288 0.097014 0.178891 
-0.163067 0.100257 0.179889 
-0.159764 0.103216 0.180098 
-0.156355 0.104056 0.179785 
-0.153379 0.103360 0.179235 
-0.152404 0.105045 0.179396 
-0.150580 0.107086 0.179460 
-0.146495 0.108105 0.179003 
-0.151670 0.096143 0.177611 
-0.151672 0.096185 0.177620 
-0.151720 0.096235 0.177636 
-0.151709 0.096302 0.177649 
-0.151649 0.096344 0.177651 
-0.151665 0.096388 0.177663 
-0.151686 0.096469 0.177683 
-0.151636 0.096533 0.177691 
-0.151556 0.096537 0.177682 
-0.151503 0.096494 0.177667 
-0.151488 0.096432 0.177652 
-0.151450 0.096420 0.177645 
-0.151387 0.096426 0.177639 
-0.151326 0.096387 0.177624 
-0.151357 0.096309 0.177611 
-0.151329 0.096254 0.177596 
-0.151370 0.096189 0.177587 
-0.151441 0.096183 0.177593 
-0.151492 0.096185 0.177600 
-0.151511 0.096147 0.177594 
-0.151548 0.096106 0.177589 
-0.151620 0.096106 0.177597 
-0.017319 0.174383 0.492400 
-0.016141 0.175354 0.492020 
-0.014312 0.174909 0.491732 
-0.012989 0.175663 0.491365 
-0.012324 0.176860 0.491049 
-0.010787 0.178328 0.490527 
-0.009150 0.178096 0.490282 
-0.006998 0.176935 0.490135 
-0.006293 0.175294 0.490319 
-0.006633 0.173171 0.490760 
-0.006760 0.172404 0.490922 
-0.004870 0.172042 0.490722 
-0.002995 0.171201 0.490633 
-0.003128 0.168663 0.491183 
-0.004924 0.167152 0.491749 
-0.007337 0.167106 0.492073 
-0.008362 0.166766 0.492282 
-0.008070 0.164912 0.492660 
-0.009052 0.163179 0.493195 
-0.010610 0.162669 0.493506 
-0.012351 0.163632 0.493495 
-0.013073 0.166205 0.493046 
-0.014152 0.166037 0.493233 
-0.015375 0.165351 0.493543 
-0.016821 0.165395 0.493745 
-0.018842 0.167460 0.493708 
-0.019161 0.169467 0.493461 
-0.017836 0.171122 0.492974 
-0.017116 0.172089 0.492695 
-0.017614 0.173397 0.492601 
-0.020671 0.177108 0.494698 
-0.018731 0.178602 0.494015 
-0.015905 0.177989 0.493427 
-0.013590 0.178621 0.492831 
-0.012576 0.180344 0.492345 
-0.010216 0.183347 0.491367 
-0.007485 0.183346 0.490867 
-0.004298 0.180886 0.490780 
-0.003356 0.178160 0.491125 
-0.003985 0.174840 0.491831 
-0.003322 0.174037 0.491889 
-0.000996 0.173211 0.491729 
0.002428 0.171942 0.491538 
0.002445 0.167795 0.492477 
-0.000685 0.165410 0.493465 
-0.004668 0.165387 0.493953 
-0.006188 0.164698 0.494312 
-0.005970 0.162125 0.494977 
-0.007150 0.158461 0.496227 
-0.009896 0.158436 0.496491 
-0.012646 0.160200 0.496243 
-0.013939 0.163760 0.495515 
-0.015939 0.163125 0.495917 
-0.018136 0.161832 0.496478 
-0.020315 0.162234 0.496677 
-0.022982 0.166006 0.496475 
-0.023127 0.169243 0.496119 
-0.021074 0.171794 0.495399 
-0.020419 0.173415 0.495063 
-0.020423 0.175162 0.494860 
-0.025500 0.180409 0.495442 
-0.021740 0.181735 0.494094 
-0.018352 0.181710 0.493133 
-0.014669 0.182037 0.492179 
-0.013268 0.184871 0.491390 
-0.009745 0.189965 0.489727 
-0.005996 0.188472 0.489355 
-0.001504 0.184976 0.489305 
0.000507 0.181778 0.489593 
-0.000082 0.177010 0.490540 
0.000433 0.175558 0.490744 
0.003935 0.174351 0.490518 
0.008111 0.172389 0.490385 
0.007649 0.166618 0.491788 
0.004737 0.162637 0.493270 
-0.001174 0.162491 0.493985 
-0.003767 0.161741 0.494493 
-0.002833 0.157042 0.495970 
-0.005204 0.152802 0.497897 
-0.009241 0.152724 0.498171 
-0.013303 0.155360 0.497428 
-0.015115 0.160780 0.496009 
-0.018092 0.159654 0.496615 
-0.021155 0.157940 0.497337 
-0.024742 0.158073 0.497642 
-0.028698 0.163634 0.497307 
-0.028715 0.168476 0.496983 
-0.025743 0.172249 0.496084 
-0.024326 0.174516 0.495552 
-0.025945 0.177844 0.495775 
-0.030534 0.183111 0.493205 
-0.026652 0.186060 0.491462 
-0.021031 0.184761 0.489882 
-0.016265 0.185546 0.488562 
-0.014340 0.189140 0.487487 
-0.009702 0.194906 0.485490 
-0.004540 0.194111 0.484885 
0.000966 0.188599 0.485148 
0.004069 0.184954 0.485391 
0.002846 0.178351 0.486710 
0.002763 0.176159 0.487120 
0.008851 0.175104 0.486551 
0.013035 0.172333 0.486563 
0.015102 0.164404 0.488077 
0.009362 0.159608 0.490205 
0.001452 0.159547 0.491126 
-0.001775 0.158420 0.491816 
-0.001456 0.153701 0.493435 
-0.003441 0.146221 0.496972 
-0.008759 0.145228 0.497671 
-0.014197 0.150870 0.495422 
-0.016964 0.156445 0.493867 
-0.020719 0.155477 0.494454 
-0.024657 0.153378 0.495283 
-0.028767 0.154120 0.495361 
-0.034228 0.160944 0.494841 
-0.036193 0.166920 0.494923 
-0.031128 0.172195 0.493833 
-0.028318 0.175009 0.492982 
-0.030320 0.179254 0.493348 
-0.034142 0.184199 0.488154 
-0.028389 0.186281 0.486035 
-0.022438 0.185109 0.484625 
-0.017624 0.187194 0.483215 
-0.015484 0.192037 0.481893 
-0.009995 0.197747 0.479913 
-0.003943 0.197211 0.479241 
0.002754 0.191224 0.479466 
0.004651 0.185223 0.480265 
0.004046 0.178533 0.481495 
0.005346 0.176653 0.481666 
0.009061 0.174473 0.481601 
0.016956 0.171906 0.481104 
0.017510 0.162906 0.482883 
0.011056 0.157587 0.485106 
0.002369 0.157463 0.486155 
-0.000411 0.155243 0.487093 
0.000382 0.148917 0.489147 
-0.003356 0.143040 0.491857 
-0.009147 0.141780 0.492718 
-0.015264 0.146624 0.491130 
-0.018006 0.154451 0.489036 
-0.022599 0.152556 0.489911 
-0.026672 0.150712 0.490664 
-0.032302 0.150570 0.491026 
-0.038226 0.158694 0.490204 
-0.040612 0.165447 0.490121 
-0.033970 0.171466 0.488839 
-0.032290 0.175051 0.488253 
-0.033572 0.179573 0.488307 
-0.035224 0.181726 0.475235 
-0.030975 0.185401 0.473858 
-0.024766 0.184586 0.472887 
-0.019050 0.185543 0.471827 
-0.016853 0.190461 0.470640 
-0.011183 0.197188 0.468691 
-0.005545 0.194300 0.468508 
0.002756 0.191256 0.468045 
0.004722 0.184650 0.468921 
0.002753 0.176657 0.470499 
0.004109 0.174793 0.470649 
0.008852 0.172845 0.470400 
0.017623 0.170180 0.469773 
0.017208 0.160697 0.471470 
0.011223 0.154818 0.473444 
0.001745 0.154931 0.474621 
-0.001433 0.152900 0.475442 
-0.001540 0.147713 0.476651 
-0.004916 0.141101 0.478724 
-0.010425 0.137508 0.480252 
-0.016740 0.144207 0.479110 
-0.019893 0.151152 0.477902 
-0.023707 0.151019 0.478337 
-0.028525 0.148147 0.479395 
-0.033605 0.148679 0.479767 
-0.041663 0.155940 0.479318 
-0.042447 0.163376 0.478478 
-0.037003 0.169575 0.477056 
-0.034089 0.173106 0.476164 
-0.036135 0.177967 0.475901 
-0.035806 0.178986 0.462490 
-0.030621 0.181417 0.461415 
-0.024798 0.180384 0.460848 
-0.020023 0.182051 0.459965 
-0.018199 0.187996 0.458720 
-0.012698 0.193642 0.457087 
-0.007179 0.191488 0.456796 
-0.000726 0.186200 0.456913 
0.002413 0.181773 0.457256 
0.000533 0.174138 0.458704 
0.001193 0.172095 0.458944 
0.006986 0.170649 0.458395 
0.014519 0.167906 0.457760 
0.014707 0.158695 0.458974 
0.008603 0.153245 0.460859 
-0.000457 0.153498 0.462259 
-0.003785 0.151979 0.463026 
-0.003343 0.146290 0.464007 
-0.006252 0.138605 0.465915 
-0.012183 0.137998 0.466828 
-0.018080 0.142963 0.466656 
-0.020597 0.150945 0.465502 
-0.024927 0.149315 0.466332 
-0.029480 0.146682 0.467343 
-0.034932 0.146643 0.467940 
-0.040002 0.154985 0.466960 
-0.041453 0.161556 0.465987 
-0.037834 0.167404 0.464617 
-0.034731 0.170786 0.463693 
-0.036902 0.175500 0.463193 
-0.034297 0.175489 0.452176 
-0.030166 0.178034 0.451279 
-0.024952 0.177123 0.450847 
-0.021036 0.179800 0.449912 
-0.018891 0.182946 0.449109 
-0.014117 0.188965 0.447513 
-0.009357 0.186446 0.447362 
-0.002923 0.183014 0.447133 
-0.001513 0.177458 0.447795 
-0.001870 0.171709 0.448694 
-0.000688 0.170056 0.448753 
0.002438 0.168060 0.448524 
0.010226 0.165797 0.447434 
0.009015 0.157831 0.448479 
0.003986 0.153165 0.450255 
-0.002402 0.152318 0.451771 
-0.006313 0.151813 0.452631 
-0.005885 0.146743 0.453428 
-0.008492 0.140119 0.455112 
-0.013630 0.138705 0.456280 
-0.018923 0.143868 0.456261 
-0.021252 0.150632 0.455367 
-0.024951 0.149475 0.456106 
-0.029041 0.147013 0.457101 
-0.034017 0.146741 0.457707 
-0.039444 0.153684 0.456802 
-0.039484 0.160054 0.455529 
-0.035688 0.165293 0.454172 
-0.033245 0.168284 0.453367 
-0.034368 0.172030 0.452796 
-0.031417 0.171802 0.444838 
-0.028601 0.174336 0.444070 
-0.024287 0.173585 0.443732 
-0.020862 0.175218 0.443011 
-0.019136 0.177526 0.442375 
-0.015495 0.181138 0.441282 
-0.011281 0.181646 0.440656 
-0.006341 0.178031 0.440559 
-0.004699 0.174018 0.440899 
-0.005698 0.168786 0.441818 
-0.005175 0.167301 0.441937 
-0.002116 0.165918 0.441521 
0.003752 0.164029 0.440436 
0.003651 0.157559 0.441058 
-0.000411 0.153666 0.442704 
-0.006217 0.153405 0.444301 
-0.008926 0.152544 0.445107 
-0.008949 0.148936 0.445746 
-0.010976 0.143632 0.447194 
-0.014985 0.141891 0.448431 
-0.019385 0.145827 0.448618 
-0.021194 0.151812 0.447751 
-0.024168 0.150890 0.448427 
-0.026735 0.149833 0.449028 
-0.031012 0.149060 0.449729 
-0.035756 0.154190 0.448974 
-0.034995 0.159519 0.447699 
-0.032322 0.163623 0.446584 
-0.030269 0.165959 0.445899 
-0.031203 0.168909 0.445385 
-0.028269 0.168616 0.440398 
-0.026333 0.170684 0.439760 
-0.023154 0.170257 0.439468 
-0.020382 0.171096 0.438933 
-0.019115 0.172882 0.438414 
-0.016383 0.175911 0.437476 
-0.013466 0.175344 0.437153 
-0.010034 0.172656 0.437051 
-0.008270 0.170401 0.437086 
-0.008688 0.166651 0.437735 
-0.008663 0.165329 0.437935 
-0.005992 0.164373 0.437477 
-0.002529 0.162822 0.436812 
-0.002652 0.158164 0.437386 
-0.005441 0.155230 0.438626 
-0.009725 0.155028 0.439881 
-0.011976 0.154713 0.440526 
-0.011516 0.151349 0.441025 
-0.013066 0.147304 0.442205 
-0.016204 0.147028 0.443078 
-0.019386 0.149256 0.443367 
-0.020845 0.153381 0.442775 
-0.023040 0.152828 0.443300 
-0.025404 0.151477 0.444006 
-0.027720 0.151929 0.444236 
-0.031613 0.155458 0.443790 
-0.030838 0.159503 0.442721 
-0.028508 0.162499 0.441784 
-0.027981 0.164402 0.441293 
-0.028577 0.166667 0.440850 
-0.024311 0.165461 0.438269 
-0.022904 0.166461 0.437857 
-0.020797 0.165793 0.437692 
-0.019468 0.166705 0.437290 
-0.018765 0.167984 0.436916 
-0.017158 0.169376 0.436382 
-0.015497 0.169080 0.436159 
-0.013368 0.167811 0.436004 
-0.012780 0.166043 0.436202 
-0.013070 0.163967 0.436633 
-0.012609 0.163441 0.436628 
-0.011215 0.162843 0.436417 
-0.009095 0.161976 0.436045 
-0.009567 0.159363 0.436587 
-0.010992 0.157635 0.437262 
-0.013492 0.157548 0.437926 
-0.014599 0.157170 0.438271 
-0.014302 0.155115 0.438602 
-0.015415 0.153259 0.439259 
-0.017124 0.152842 0.439771 
-0.018907 0.154256 0.439877 
-0.019664 0.156712 0.439491 
-0.020913 0.156332 0.439823 
-0.022206 0.155616 0.440230 
-0.023512 0.155863 0.440401 
-0.025785 0.157844 0.440269 
-0.025497 0.160083 0.439682 
-0.024510 0.161796 0.439139 
-0.023886 0.162864 0.438802 
