-0.157370 0.125989 0.422283 
-0.155357 0.123476 0.421578 
-0.157209 0.120822 0.421258 
-0.157376 0.118602 0.420873 
-0.155738 0.116515 0.420324 
-0.156115 0.112992 0.419777 
-0.158292 0.110068 0.419577 
-0.160370 0.110083 0.419836 
-0.163493 0.111035 0.420378 
-0.164511 0.109394 0.420270 
-0.167644 0.108226 0.420540 
-0.170963 0.108850 0.421130 
-0.174032 0.113151 0.422217 
-0.173105 0.116301 0.422504 
-0.170180 0.118038 0.422327 
-0.169533 0.120195 0.422568 
-0.171359 0.122605 0.423180 
-0.171328 0.124970 0.423546 
-0.168606 0.127246 0.423607 
-0.165685 0.125638 0.423019 
-0.162551 0.127595 0.423078 
-0.159862 0.128048 0.422931 
-0.152366 0.131273 0.425578 
-0.149642 0.126552 0.424143 
-0.152864 0.122169 0.423471 
-0.153264 0.118602 0.422798 
-0.150437 0.115249 0.421853 
-0.151700 0.109981 0.421100 
-0.154715 0.105032 0.420699 
-0.158474 0.106088 0.421324 
-0.162997 0.106792 0.422020 
-0.164575 0.104325 0.421885 
-0.169429 0.102474 0.422366 
-0.174048 0.104114 0.423395 
-0.178169 0.110658 0.425062 
-0.178141 0.114932 0.425604 
-0.173286 0.117702 0.425124 
-0.172645 0.121160 0.425535 
-0.175557 0.125014 0.426534 
-0.175911 0.129177 0.427199 
-0.171042 0.132229 0.427148 
-0.166587 0.130343 0.426404 
-0.161532 0.132349 0.426450 
-0.157605 0.132510 0.426243 
-0.147302 0.137246 0.426536 
-0.143927 0.130148 0.424050 
-0.147911 0.124222 0.422951 
-0.147398 0.119101 0.421791 
-0.143111 0.113877 0.420282 
-0.146288 0.106450 0.419455 
-0.150729 0.099303 0.418956 
-0.155710 0.099767 0.419630 
-0.162686 0.100879 0.420697 
-0.165137 0.096724 0.420474 
-0.172178 0.095283 0.421419 
-0.179587 0.096804 0.423142 
-0.185499 0.106993 0.425911 
-0.183737 0.113822 0.426231 
-0.178204 0.117673 0.425513 
-0.177765 0.123091 0.426156 
-0.181243 0.128475 0.427458 
-0.182440 0.135247 0.428488 
-0.174602 0.139105 0.428160 
-0.167903 0.135760 0.427107 
-0.160643 0.138692 0.427458 
-0.154264 0.140544 0.427856 
-0.143152 0.143195 0.423339 
-0.139208 0.133918 0.419899 
-0.142879 0.126975 0.418529 
-0.143614 0.119957 0.417138 
-0.138628 0.113444 0.415355 
-0.139208 0.102002 0.413745 
-0.147840 0.095008 0.413835 
-0.153075 0.093249 0.414222 
-0.162833 0.096071 0.415820 
-0.166003 0.091347 0.415623 
-0.175181 0.089031 0.416769 
-0.184480 0.091415 0.419075 
-0.195202 0.102754 0.423664 
-0.191754 0.112752 0.423579 
-0.182753 0.118131 0.421983 
-0.182839 0.125319 0.422867 
-0.187990 0.132796 0.424680 
-0.187924 0.140434 0.425421 
-0.177808 0.144870 0.424781 
-0.169675 0.141548 0.423786 
-0.159964 0.147529 0.424958 
-0.152053 0.147576 0.425091 
-0.141956 0.146535 0.416333 
-0.135278 0.137746 0.413000 
-0.140655 0.129044 0.411626 
-0.141780 0.120993 0.410236 
-0.135469 0.113510 0.408243 
-0.137552 0.101237 0.406815 
-0.145285 0.091101 0.406411 
-0.152465 0.091009 0.407226 
-0.163388 0.093733 0.408896 
-0.167040 0.087888 0.408600 
-0.177086 0.086812 0.409928 
-0.188796 0.087532 0.412332 
-0.199840 0.101686 0.417150 
-0.194354 0.113257 0.416825 
-0.186861 0.118917 0.415793 
-0.185730 0.126953 0.416527 
-0.190994 0.135007 0.418349 
-0.190673 0.143138 0.419095 
-0.181683 0.151760 0.418953 
-0.171740 0.147578 0.417806 
-0.160407 0.151492 0.418283 
-0.151500 0.151968 0.418385 
-0.142324 0.150477 0.399879 
-0.136500 0.140121 0.397204 
-0.141322 0.131415 0.396303 
-0.142952 0.122925 0.395209 
-0.135657 0.115078 0.393251 
-0.139183 0.103056 0.392100 
-0.145729 0.091186 0.391343 
-0.154328 0.093246 0.392558 
-0.165060 0.094677 0.393954 
-0.168877 0.088367 0.393561 
-0.179426 0.087224 0.394684 
-0.192600 0.086816 0.396535 
-0.203032 0.102996 0.400661 
-0.198324 0.114757 0.401243 
-0.189308 0.120808 0.400540 
-0.188623 0.129298 0.401499 
-0.192500 0.136802 0.402956 
-0.195673 0.148145 0.404677 
-0.183331 0.153479 0.403799 
-0.173121 0.147995 0.402112 
-0.162121 0.154520 0.402197 
-0.153184 0.154661 0.401609 
-0.144556 0.152262 0.382851 
-0.139090 0.141751 0.380747 
-0.144829 0.132783 0.380193 
-0.146200 0.124839 0.379295 
-0.137830 0.117154 0.377331 
-0.142725 0.106196 0.376482 
-0.150225 0.097012 0.376120 
-0.156231 0.095385 0.376515 
-0.167097 0.098950 0.378088 
-0.170794 0.090715 0.377244 
-0.180998 0.090372 0.378142 
-0.192553 0.091530 0.379554 
-0.201066 0.106929 0.383227 
-0.199799 0.116850 0.384584 
-0.190834 0.122821 0.384310 
-0.189059 0.130802 0.385205 
-0.194575 0.138991 0.387000 
-0.195479 0.148214 0.388269 
-0.183906 0.152886 0.387364 
-0.174739 0.148974 0.385783 
-0.164449 0.153336 0.385145 
-0.155921 0.154760 0.384412 
-0.149108 0.150356 0.368868 
-0.143569 0.141593 0.367144 
-0.150104 0.132962 0.366826 
-0.150549 0.126325 0.366014 
-0.143741 0.119710 0.364365 
-0.147566 0.110069 0.363515 
-0.153935 0.101791 0.363028 
-0.159567 0.101049 0.363409 
-0.168819 0.102555 0.364423 
-0.172122 0.096935 0.363691 
-0.181521 0.095173 0.363985 
-0.190859 0.097716 0.365299 
-0.199806 0.110069 0.368987 
-0.196308 0.119588 0.370446 
-0.189533 0.124588 0.370518 
-0.187476 0.131347 0.371362 
-0.192705 0.138609 0.373152 
-0.192703 0.145803 0.374136 
-0.184215 0.151805 0.373636 
-0.175881 0.148441 0.372066 
-0.166417 0.153043 0.371293 
-0.158985 0.152882 0.370337 
-0.154975 0.145836 0.358803 
-0.149786 0.139585 0.357411 
-0.154429 0.132892 0.357144 
-0.154253 0.127369 0.356376 
-0.150861 0.122124 0.355250 
-0.152556 0.113859 0.354255 
-0.158202 0.107510 0.353812 
-0.162353 0.106017 0.353888 
-0.170247 0.108805 0.355020 
-0.172924 0.103129 0.354026 
-0.179948 0.103537 0.354552 
-0.188792 0.103340 0.355117 
-0.194203 0.114825 0.358718 
-0.192758 0.121877 0.360219 
-0.187182 0.125958 0.360379 
-0.184843 0.131220 0.361056 
-0.190222 0.137657 0.362945 
-0.189516 0.142977 0.363652 
-0.182233 0.146892 0.362977 
-0.176062 0.145377 0.361799 
-0.168427 0.148118 0.360919 
-0.162384 0.148540 0.360091 
-0.159593 0.141875 0.352623 
-0.156392 0.136635 0.351531 
-0.159625 0.131852 0.351318 
-0.159744 0.127792 0.350736 
-0.155975 0.123768 0.349665 
-0.157464 0.117414 0.348830 
-0.161458 0.111958 0.348267 
-0.165369 0.112065 0.348610 
-0.171173 0.113736 0.349453 
-0.173151 0.110162 0.348799 
-0.178759 0.109244 0.348965 
-0.184704 0.110428 0.349746 
-0.189331 0.118506 0.352479 
-0.188610 0.123735 0.353737 
-0.183511 0.126861 0.353776 
-0.183116 0.131132 0.354600 
-0.185371 0.135074 0.355698 
-0.185600 0.139477 0.356497 
-0.180580 0.143137 0.356165 
-0.175575 0.141301 0.355056 
-0.169816 0.143741 0.354401 
-0.165204 0.144015 0.353701 
-0.165318 0.135783 0.349527 
-0.163885 0.132576 0.348842 
-0.165072 0.130213 0.348641 
-0.165243 0.127823 0.348269 
-0.163170 0.125513 0.347607 
-0.163989 0.121874 0.347064 
-0.166337 0.118844 0.346749 
-0.168784 0.119429 0.347128 
-0.171845 0.119873 0.347558 
-0.172968 0.117669 0.347185 
-0.176270 0.116960 0.347348 
-0.179691 0.117784 0.347907 
-0.182754 0.122344 0.349426 
-0.181169 0.125688 0.350023 
-0.178986 0.127323 0.350082 
-0.178739 0.129766 0.350555 
-0.180047 0.132035 0.351207 
-0.180424 0.134805 0.351790 
-0.177072 0.136371 0.351502 
-0.174250 0.135164 0.350838 
-0.171099 0.136554 0.350545 
-0.168207 0.137667 0.350243 
-0.172440 0.127175 0.349168 
-0.172472 0.127234 0.349184 
-0.172432 0.127287 0.349189 
-0.172432 0.127329 0.349197 
-0.172465 0.127369 0.349209 
-0.172450 0.127431 0.349219 
-0.172414 0.127490 0.349225 
-0.172376 0.127492 0.349220 
-0.172315 0.127473 0.349208 
-0.172296 0.127506 0.349212 
-0.172239 0.127517 0.349206 
-0.172177 0.127505 0.349195 
-0.172121 0.127425 0.349172 
-0.172136 0.127369 0.349163 
-0.172190 0.127337 0.349165 
-0.172196 0.127295 0.349158 
-0.172158 0.127247 0.349143 
-0.172162 0.127203 0.349135 
-0.172215 0.127162 0.349135 
-0.172269 0.127181 0.349146 
-0.172332 0.127153 0.349149 
-0.172382 0.127148 0.349155 
0.030416 0.144274 0.406401 
0.028954 0.144349 0.406329 
0.027134 0.144352 0.406243 
0.026342 0.146424 0.406166 
0.026253 0.148677 0.406147 
0.024650 0.150659 0.406056 
0.024653 0.152439 0.406076 
0.025430 0.154228 0.406164 
0.026598 0.155635 0.406284 
0.028063 0.155664 0.406393 
0.029344 0.156561 0.406523 
0.029840 0.158249 0.406631 
0.031286 0.158840 0.406782 
0.033405 0.158175 0.406947 
0.035586 0.157099 0.407111 
0.036700 0.155303 0.407135 
0.038512 0.155146 0.407325 
0.040791 0.155098 0.407599 
0.041674 0.153154 0.407588 
0.041010 0.150763 0.407363 
0.040652 0.149161 0.407239 
0.040396 0.147429 0.407131 
0.040978 0.146044 0.407126 
0.040886 0.144284 0.407049 
0.040149 0.143099 0.406954 
0.038695 0.143302 0.406857 
0.037358 0.143329 0.406772 
0.034563 0.142294 0.406617 
0.032564 0.141686 0.406536 
0.030859 0.142516 0.406450 
0.028514 0.140891 0.408179 
0.025612 0.140340 0.408124 
0.023315 0.141075 0.407990 
0.021806 0.144258 0.407727 
0.021818 0.147955 0.407601 
0.019823 0.151081 0.407440 
0.019180 0.154031 0.407413 
0.020982 0.156614 0.407586 
0.022442 0.159097 0.407763 
0.025031 0.158866 0.407946 
0.027328 0.159734 0.408158 
0.027568 0.163424 0.408341 
0.030087 0.163567 0.408577 
0.033326 0.163978 0.408936 
0.036749 0.161247 0.409190 
0.038439 0.158315 0.409230 
0.041357 0.158181 0.409639 
0.043992 0.157407 0.410017 
0.046648 0.155160 0.410313 
0.046047 0.151369 0.409868 
0.044261 0.148780 0.409399 
0.044919 0.145825 0.409290 
0.045388 0.143766 0.409219 
0.045113 0.141054 0.409039 
0.043574 0.139553 0.408847 
0.041524 0.139667 0.408714 
0.040001 0.138827 0.408623 
0.035189 0.137581 0.408492 
0.032008 0.137264 0.408462 
0.029393 0.138561 0.408341 
0.026071 0.136413 0.408135 
0.022545 0.136636 0.408051 
0.019181 0.137541 0.407831 
0.015879 0.141501 0.407232 
0.015385 0.147041 0.406882 
0.013132 0.151835 0.406646 
0.011888 0.156346 0.406619 
0.014258 0.160480 0.406923 
0.018121 0.162924 0.407289 
0.021226 0.163191 0.407521 
0.023844 0.165743 0.407832 
0.025566 0.168354 0.408099 
0.028386 0.171173 0.408495 
0.033376 0.170477 0.408991 
0.038320 0.166459 0.409420 
0.040805 0.162291 0.409520 
0.045904 0.163004 0.410547 
0.050565 0.162181 0.411622 
0.052312 0.157495 0.411541 
0.051603 0.152127 0.410705 
0.050132 0.148342 0.409978 
0.049746 0.144276 0.409518 
0.051328 0.140926 0.409453 
0.050422 0.137259 0.409008 
0.049026 0.134292 0.408663 
0.045682 0.134728 0.408480 
0.043463 0.133369 0.408370 
0.036095 0.132098 0.408423 
0.031299 0.130208 0.408764 
0.027489 0.133131 0.408512 
0.024509 0.133364 0.405044 
0.018852 0.132134 0.405110 
0.013857 0.133011 0.404736 
0.010952 0.139289 0.403749 
0.010323 0.146455 0.403352 
0.006582 0.152744 0.403067 
0.007201 0.158047 0.403295 
0.007100 0.164840 0.403613 
0.012560 0.168134 0.404144 
0.018096 0.167093 0.404459 
0.021400 0.170408 0.404857 
0.023135 0.174885 0.405218 
0.026814 0.179116 0.405728 
0.033603 0.177182 0.406286 
0.040269 0.172502 0.406921 
0.043480 0.166650 0.407050 
0.049919 0.167232 0.408449 
0.054486 0.165058 0.409458 
0.057418 0.159681 0.409649 
0.058541 0.153189 0.409062 
0.055314 0.148129 0.407586 
0.056402 0.142346 0.407110 
0.055967 0.138967 0.406634 
0.056114 0.133486 0.406031 
0.053582 0.130257 0.405440 
0.050616 0.129276 0.405186 
0.046738 0.128732 0.405062 
0.037404 0.125849 0.405358 
0.030976 0.124705 0.405928 
0.025763 0.127793 0.405778 
0.023584 0.131352 0.399796 
0.018213 0.131257 0.399654 
0.013330 0.132573 0.399254 
0.009059 0.138538 0.398463 
0.006654 0.146148 0.398111 
0.003306 0.153402 0.398024 
0.003322 0.159625 0.398320 
0.006293 0.165735 0.398842 
0.010034 0.170873 0.399363 
0.016351 0.169657 0.399701 
0.020614 0.172528 0.400135 
0.021700 0.179362 0.400579 
0.026270 0.183119 0.401100 
0.033939 0.181417 0.401659 
0.041444 0.175639 0.402224 
0.045037 0.169025 0.402317 
0.051792 0.169176 0.403542 
0.057912 0.167615 0.404837 
0.062682 0.162003 0.405476 
0.061069 0.153793 0.403981 
0.058941 0.148163 0.402846 
0.058104 0.142189 0.402035 
0.060130 0.137393 0.401822 
0.060041 0.131146 0.401085 
0.057800 0.126705 0.400361 
0.052197 0.128063 0.400140 
0.048409 0.126921 0.399942 
0.038454 0.122294 0.400046 
0.031045 0.121460 0.400556 
0.024968 0.124771 0.400475 
0.024068 0.131525 0.387822 
0.018144 0.130917 0.387532 
0.013019 0.132311 0.387218 
0.006478 0.137616 0.386762 
0.007419 0.146772 0.387086 
0.002567 0.154167 0.387084 
0.003389 0.160425 0.387473 
0.004585 0.167702 0.387956 
0.011068 0.171169 0.388550 
0.015671 0.171800 0.388865 
0.019721 0.175844 0.389331 
0.022513 0.179703 0.389707 
0.026627 0.185316 0.390247 
0.034700 0.181927 0.390590 
0.042252 0.176462 0.390921 
0.047063 0.171892 0.391137 
0.053191 0.170627 0.391735 
0.059607 0.169107 0.392479 
0.064320 0.163171 0.392726 
0.063660 0.154767 0.391951 
0.060551 0.148772 0.391092 
0.060220 0.142378 0.390568 
0.061752 0.137590 0.390351 
0.061861 0.130959 0.389826 
0.059810 0.126029 0.389261 
0.054795 0.126398 0.388960 
0.049769 0.126530 0.388700 
0.039248 0.122751 0.388172 
0.031789 0.121627 0.388035 
0.025938 0.125998 0.387899 
0.025335 0.133129 0.375646 
0.019061 0.131780 0.375202 
0.014020 0.133189 0.374953 
0.008807 0.139022 0.374885 
0.010020 0.147705 0.375397 
0.007183 0.154405 0.375570 
0.004062 0.161105 0.375744 
0.006557 0.167656 0.376266 
0.011796 0.171838 0.376799 
0.017478 0.171285 0.377068 
0.021780 0.174332 0.377430 
0.023820 0.179119 0.377736 
0.027915 0.183942 0.378073 
0.035574 0.182329 0.378278 
0.043111 0.177239 0.378553 
0.047278 0.171692 0.378712 
0.053961 0.171479 0.379182 
0.059228 0.169159 0.379555 
0.063644 0.163417 0.379749 
0.063805 0.155423 0.379439 
0.061228 0.149456 0.378972 
0.060112 0.143304 0.378586 
0.061531 0.138706 0.378441 
0.059790 0.133686 0.378011 
0.058941 0.128385 0.377600 
0.054879 0.127969 0.377278 
0.049371 0.129110 0.376965 
0.039741 0.125227 0.376090 
0.032763 0.124448 0.375644 
0.027281 0.128344 0.375528 
0.027260 0.136049 0.365817 
0.021474 0.134536 0.365320 
0.016642 0.135508 0.365064 
0.012925 0.141244 0.365159 
0.013822 0.148736 0.365634 
0.010757 0.154648 0.365754 
0.009782 0.160072 0.365980 
0.012097 0.165426 0.366382 
0.015068 0.170102 0.366751 
0.019459 0.170359 0.366932 
0.023952 0.172340 0.367141 
0.025434 0.177422 0.367271 
0.029673 0.179867 0.367301 
0.036221 0.178543 0.367358 
0.042771 0.174532 0.367677 
0.046350 0.169617 0.368014 
0.051398 0.168634 0.368331 
0.057503 0.168059 0.368757 
0.061409 0.162832 0.369146 
0.059786 0.155317 0.369061 
0.058657 0.150197 0.368934 
0.058598 0.144488 0.368798 
0.059436 0.140524 0.368716 
0.059131 0.135202 0.368419 
0.056122 0.132435 0.367980 
0.053256 0.131438 0.367651 
0.048205 0.132744 0.367296 
0.039760 0.130175 0.366364 
0.033749 0.127323 0.365678 
0.028702 0.131066 0.365586 
0.029159 0.139033 0.358852 
0.024773 0.138383 0.358449 
0.022139 0.140248 0.358373 
0.017738 0.143720 0.358269 
0.017758 0.149663 0.358595 
0.016211 0.154521 0.358724 
0.015357 0.158885 0.358861 
0.016417 0.163648 0.359098 
0.020339 0.166329 0.359333 
0.023859 0.166367 0.359455 
0.026427 0.169320 0.359521 
0.027890 0.173015 0.359467 
0.031240 0.175326 0.359351 
0.036580 0.173210 0.359476 
0.041829 0.170374 0.359813 
0.044595 0.166195 0.360258 
0.049188 0.166056 0.360508 
0.054473 0.165752 0.360857 
0.056364 0.160764 0.361353 
0.055681 0.154946 0.361586 
0.054415 0.150836 0.361592 
0.053889 0.146486 0.361561 
0.054830 0.143304 0.361596 
0.054492 0.139263 0.361416 
0.052206 0.137126 0.361053 
0.050083 0.136259 0.360759 
0.046315 0.136998 0.360399 
0.039782 0.134020 0.359449 
0.034753 0.132623 0.358833 
0.030708 0.135782 0.358741 
0.031217 0.142429 0.354747 
0.028368 0.142545 0.354482 
0.025660 0.143230 0.354282 
0.022803 0.146190 0.354214 
0.022820 0.150601 0.354423 
0.021448 0.154232 0.354455 
0.019448 0.157946 0.354439 
0.021454 0.161195 0.354613 
0.024657 0.163040 0.354764 
0.027163 0.163199 0.354864 
0.029738 0.164346 0.354932 
0.030141 0.168395 0.354756 
0.032659 0.170301 0.354638 
0.036775 0.168967 0.354791 
0.040519 0.165322 0.355261 
0.042779 0.162764 0.355605 
0.045834 0.162215 0.355828 
0.050029 0.162271 0.356079 
0.051133 0.158469 0.356524 
0.051899 0.154473 0.356874 
0.050518 0.151291 0.356904 
0.049992 0.148028 0.356926 
0.050788 0.145589 0.357014 
0.051020 0.142185 0.356975 
0.048678 0.141025 0.356648 
0.046473 0.141061 0.356381 
0.044700 0.140252 0.356117 
0.039287 0.138734 0.355354 
0.035553 0.138566 0.354916 
0.032630 0.140610 0.354765 
0.033906 0.147109 0.353020 
0.032044 0.146799 0.352817 
0.030587 0.147303 0.352692 
0.029294 0.149164 0.352637 
0.029086 0.151544 0.352681 
0.027880 0.153633 0.352618 
0.027142 0.155678 0.352583 
0.027986 0.157655 0.352640 
0.029715 0.158825 0.352732 
0.031264 0.158833 0.352827 
0.032586 0.159796 0.352874 
0.033024 0.161768 0.352806 
0.034691 0.161905 0.352878 
0.036859 0.161917 0.352983 
0.039091 0.160097 0.353244 
0.040279 0.158304 0.353447 
0.042096 0.158066 0.353594 
0.044610 0.158141 0.353772 
0.045042 0.155859 0.353977 
0.045201 0.153588 0.354123 
0.044550 0.151864 0.354132 
0.044255 0.150069 0.354148 
0.044800 0.148667 0.354225 
0.044575 0.146996 0.354201 
0.043937 0.145763 0.354111 
0.042446 0.145995 0.353940 
0.041480 0.145440 0.353812 
0.038251 0.144976 0.353418 
0.036181 0.144456 0.353158 
0.034355 0.145219 0.352991 
0.036928 0.152648 0.353412 
0.036960 0.152648 0.353415 
0.036989 0.152641 0.353417 
0.037012 0.152604 0.353420 
0.037012 0.152557 0.353420 
0.037037 0.152518 0.353423 
0.037038 0.152484 0.353424 
0.037033 0.152445 0.353424 
0.036997 0.152428 0.353420 
0.036969 0.152429 0.353418 
0.036946 0.152410 0.353416 
0.036941 0.152370 0.353416 
0.036910 0.152371 0.353413 
0.036870 0.152379 0.353409 
0.036829 0.152401 0.353405 
0.036806 0.152433 0.353403 
0.036774 0.152440 0.353400 
0.036736 0.152445 0.353396 
0.036707 0.152474 0.353393 
0.036720 0.152521 0.353394 
0.036734 0.152551 0.353395 
0.036736 0.152584 0.353395 
0.036718 0.152613 0.353393 
0.036730 0.152640 0.353394 
0.036744 0.152661 0.353395 
0.036768 0.152660 0.353397 
0.036789 0.152665 0.353399 
0.036843 0.152692 0.353403 
0.036883 0.152692 0.353407 
0.036915 0.152671 0.353410 
-0.019108 0.127741 0.384948 
-0.016572 0.128826 0.384514 
-0.014391 0.125725 0.383801 
-0.013186 0.123028 0.383389 
-0.013846 0.118783 0.383379 
-0.015793 0.117769 0.383786 
-0.016408 0.115694 0.383900 
-0.020262 0.115085 0.384838 
-0.022999 0.115744 0.385553 
-0.025555 0.117196 0.386227 
-0.026408 0.120227 0.386386 
-0.027193 0.123153 0.386560 
-0.026850 0.126010 0.386510 
-0.024745 0.126788 0.386073 
-0.020766 0.129696 0.385459 
-0.018119 0.130888 0.386906 
-0.014371 0.132108 0.386283 
-0.010530 0.127785 0.384913 
-0.009508 0.123354 0.384380 
-0.010260 0.116941 0.384311 
-0.012568 0.114737 0.384775 
-0.013834 0.111720 0.385042 
-0.019960 0.111716 0.386627 
-0.023918 0.112730 0.387787 
-0.027674 0.114787 0.388914 
-0.029848 0.118925 0.389345 
-0.030564 0.123582 0.389315 
-0.030249 0.128067 0.389181 
-0.027126 0.129439 0.388558 
-0.020737 0.134323 0.387929 
-0.017240 0.135229 0.387066 
-0.011209 0.137701 0.386212 
-0.005949 0.130515 0.383741 
-0.004224 0.123895 0.382921 
-0.005812 0.114421 0.383010 
-0.009477 0.111465 0.383734 
-0.010660 0.106038 0.383962 
-0.020049 0.105451 0.386515 
-0.026181 0.107313 0.388636 
-0.031727 0.110805 0.390613 
-0.035365 0.117032 0.391253 
-0.036092 0.124231 0.390585 
-0.035977 0.131189 0.390094 
-0.031083 0.133233 0.389188 
-0.021110 0.139986 0.388838 
-0.016995 0.139245 0.384245 
-0.009283 0.142167 0.383026 
-0.002531 0.132915 0.379764 
0.001248 0.124528 0.378579 
-0.001593 0.111764 0.378989 
-0.006492 0.107792 0.379914 
-0.008221 0.100758 0.380217 
-0.020685 0.099690 0.383506 
-0.029093 0.101634 0.386735 
-0.036441 0.106733 0.389600 
-0.039885 0.115714 0.389524 
-0.040880 0.124747 0.388468 
-0.040405 0.133289 0.387516 
-0.035181 0.136574 0.386588 
-0.022029 0.144291 0.386356 
-0.017440 0.142001 0.379119 
-0.009264 0.144072 0.377538 
-0.000091 0.134958 0.374106 
0.001392 0.124668 0.373548 
-0.000349 0.110595 0.373759 
-0.005260 0.105604 0.374661 
-0.008216 0.099175 0.375193 
-0.021670 0.098364 0.378430 
-0.030935 0.099717 0.381607 
-0.039839 0.104489 0.384931 
-0.044556 0.114518 0.385338 
-0.045766 0.125255 0.384207 
-0.044561 0.135095 0.382941 
-0.037160 0.137538 0.381625 
-0.023446 0.149007 0.381646 
-0.019587 0.142920 0.366976 
-0.010703 0.145741 0.365324 
-0.000928 0.135793 0.362735 
0.001741 0.124988 0.362088 
-0.001525 0.110169 0.362598 
-0.007344 0.105664 0.363644 
-0.009739 0.098209 0.364012 
-0.023929 0.096249 0.366881 
-0.033669 0.098745 0.369339 
-0.042784 0.104056 0.371769 
-0.046675 0.114695 0.372329 
-0.047420 0.125279 0.372055 
-0.046833 0.135242 0.371630 
-0.040203 0.138453 0.370384 
-0.026013 0.150083 0.368726 
-0.022119 0.142136 0.354539 
-0.013032 0.145910 0.352850 
-0.004697 0.134993 0.351060 
-0.002680 0.124857 0.350583 
-0.004723 0.110774 0.350836 
-0.010328 0.106439 0.351722 
-0.012591 0.099147 0.351885 
-0.026336 0.098890 0.354263 
-0.035794 0.099336 0.356318 
-0.044256 0.104935 0.358459 
-0.047501 0.115294 0.359357 
-0.050460 0.125469 0.360065 
-0.047795 0.134546 0.359506 
-0.042459 0.138441 0.358426 
-0.028299 0.148565 0.355804 
-0.024591 0.139444 0.344427 
-0.017105 0.142050 0.342968 
-0.010353 0.132859 0.341613 
-0.006042 0.124785 0.340709 
-0.008162 0.111677 0.340864 
-0.014825 0.109070 0.341750 
-0.015750 0.101125 0.341288 
-0.028442 0.099951 0.343059 
-0.036604 0.102265 0.345201 
-0.043610 0.107469 0.347425 
-0.046970 0.116207 0.348816 
-0.049199 0.125193 0.349688 
-0.047797 0.133476 0.349430 
-0.041395 0.135528 0.348002 
-0.029971 0.144905 0.345428 
-0.026554 0.136645 0.337212 
-0.020674 0.138117 0.335979 
-0.014921 0.131041 0.334788 
-0.012436 0.124340 0.334167 
-0.013517 0.113894 0.333894 
-0.018228 0.111147 0.334348 
-0.019816 0.105702 0.333831 
-0.029781 0.105323 0.335395 
-0.036003 0.107327 0.337259 
-0.042168 0.110415 0.339382 
-0.045638 0.117259 0.341138 
-0.045089 0.124635 0.341581 
-0.045325 0.131385 0.341757 
-0.040711 0.133485 0.340571 
-0.030976 0.140237 0.338064 
-0.028236 0.132584 0.332897 
-0.023337 0.134911 0.331769 
-0.018648 0.129399 0.330705 
-0.017515 0.123965 0.330276 
-0.018725 0.116345 0.329926 
-0.022109 0.114332 0.330265 
-0.023320 0.110457 0.329812 
-0.030564 0.109395 0.330970 
-0.035332 0.111172 0.332558 
-0.039966 0.113595 0.334321 
-0.041826 0.118971 0.335709 
-0.043254 0.124400 0.336657 
-0.041989 0.129174 0.336495 
-0.038836 0.130943 0.335628 
-0.031454 0.136125 0.333594 
-0.029488 0.128492 0.330800 
-0.026770 0.129616 0.330148 
-0.024085 0.126534 0.329393 
-0.023501 0.123466 0.329068 
-0.023984 0.119093 0.328743 
-0.025818 0.117818 0.328970 
-0.026824 0.116073 0.328913 
-0.030810 0.115162 0.329666 
-0.033623 0.116124 0.330570 
-0.035986 0.117880 0.331528 
-0.037468 0.120631 0.332361 
-0.037549 0.123695 0.332726 
-0.037750 0.126715 0.332993 
-0.035503 0.127488 0.332388 
-0.031325 0.130612 0.331318 
-0.030624 0.122717 0.330757 
-0.030675 0.122695 0.330768 
-0.030715 0.122759 0.330784 
-0.030730 0.122811 0.330793 
-0.030728 0.122891 0.330800 
-0.030687 0.122908 0.330791 
-0.030680 0.122956 0.330794 
-0.030601 0.122951 0.330773 
-0.030550 0.122940 0.330759 
-0.030504 0.122912 0.330744 
-0.030475 0.122863 0.330732 
-0.030468 0.122805 0.330724 
-0.030474 0.122750 0.330721 
-0.030514 0.122735 0.330730 
-0.030591 0.122675 0.330744 
