-0.114120 0.016757 0.782048 
-0.113586 0.014876 0.781928 
-0.114781 0.013588 0.781370 
-0.116428 0.013476 0.780865 
-0.118448 0.014581 0.780470 
-0.119390 0.012965 0.779944 
-0.121628 0.012025 0.779182 
-0.124114 0.012911 0.778692 
-0.126162 0.014412 0.778449 
-0.126533 0.015782 0.778605 
-0.125590 0.017511 0.779145 
-0.125958 0.018801 0.779294 
-0.127146 0.019581 0.779162 
-0.129352 0.021377 0.779010 
-0.129247 0.024065 0.779589 
-0.127296 0.025677 0.780364 
-0.125595 0.026569 0.780932 
-0.123085 0.025650 0.781297 
-0.121591 0.025611 0.781631 
-0.120960 0.027080 0.782074 
-0.119908 0.028653 0.782639 
-0.117602 0.029147 0.783260 
-0.115854 0.027520 0.783350 
-0.114966 0.025640 0.783229 
-0.115073 0.023884 0.782903 
-0.114097 0.022723 0.782970 
-0.112734 0.021687 0.783184 
-0.111315 0.020270 0.783385 
-0.111466 0.018382 0.783077 
-0.112272 0.016960 0.782631 
-0.110874 0.014123 0.784968 
-0.110932 0.011822 0.784638 
-0.112234 0.009261 0.783807 
-0.115303 0.010038 0.782892 
-0.117930 0.010429 0.782138 
-0.119561 0.008729 0.781371 
-0.122919 0.007632 0.780237 
-0.126660 0.008922 0.779487 
-0.129883 0.011040 0.779075 
-0.130540 0.013066 0.779284 
-0.129193 0.015675 0.780080 
-0.129566 0.017726 0.780379 
-0.131843 0.018869 0.780081 
-0.135185 0.021689 0.779925 
-0.134596 0.025709 0.780975 
-0.132419 0.028704 0.782187 
-0.129009 0.029456 0.783084 
-0.125095 0.027924 0.783531 
-0.123146 0.028690 0.784132 
-0.121990 0.030314 0.784763 
-0.120404 0.033054 0.785770 
-0.116671 0.034271 0.786827 
-0.113800 0.031695 0.786853 
-0.112371 0.028635 0.786609 
-0.112444 0.025875 0.786130 
-0.110853 0.023967 0.786278 
-0.108767 0.022232 0.786664 
-0.106227 0.019914 0.787227 
-0.107473 0.017007 0.786500 
-0.108503 0.014728 0.785878 
-0.106971 0.011752 0.785661 
-0.106096 0.007611 0.785509 
-0.108460 0.004308 0.784028 
-0.112665 0.004955 0.782527 
-0.116646 0.005598 0.781302 
-0.119143 0.003588 0.780178 
-0.124154 0.001574 0.778414 
-0.130328 0.002569 0.777069 
-0.134487 0.006804 0.776859 
-0.135733 0.009634 0.777079 
-0.133879 0.013488 0.778193 
-0.133639 0.016819 0.778874 
-0.138034 0.018368 0.778207 
-0.141672 0.022521 0.778308 
-0.141152 0.028403 0.779891 
-0.138161 0.032847 0.781821 
-0.133678 0.034508 0.783217 
-0.127833 0.032509 0.783726 
-0.124749 0.033647 0.784647 
-0.122939 0.036057 0.785686 
-0.120444 0.038046 0.786736 
-0.114958 0.041104 0.788597 
-0.110816 0.037060 0.788217 
-0.108662 0.032710 0.787776 
-0.108715 0.028734 0.787121 
-0.106806 0.025757 0.787238 
-0.102145 0.023634 0.788446 
-0.100786 0.019965 0.788702 
-0.100616 0.015435 0.788558 
-0.103906 0.012710 0.786996 
-0.102370 0.009985 0.782843 
-0.100336 0.003792 0.782949 
-0.102968 -0.001382 0.780844 
-0.109670 0.001194 0.778680 
-0.115077 0.003036 0.777251 
-0.117964 -0.001797 0.775498 
-0.124709 -0.003924 0.773365 
-0.132437 -0.001709 0.772005 
-0.138249 0.003266 0.771601 
-0.138638 0.007808 0.772297 
-0.137201 0.012162 0.773372 
-0.137600 0.016314 0.774042 
-0.143919 0.018367 0.773069 
-0.148146 0.023975 0.773321 
-0.147366 0.031784 0.775469 
-0.143147 0.037490 0.778161 
-0.137470 0.039886 0.780088 
-0.129285 0.036674 0.780510 
-0.125201 0.037813 0.781602 
-0.123019 0.041355 0.783085 
-0.119859 0.045637 0.785051 
-0.112960 0.046731 0.786406 
-0.106528 0.044062 0.786529 
-0.104264 0.037332 0.785451 
-0.104018 0.032378 0.784714 
-0.100782 0.028709 0.785073 
-0.096475 0.025338 0.786039 
-0.092402 0.020686 0.787294 
-0.093316 0.014575 0.786985 
-0.096747 0.010426 0.785310 
-0.097199 0.008595 0.777577 
-0.097732 0.003774 0.776713 
-0.099423 -0.003286 0.774752 
-0.107095 -0.000396 0.772589 
-0.113084 0.000957 0.771060 
-0.116473 -0.004950 0.769040 
-0.123958 -0.004970 0.767262 
-0.132791 -0.003371 0.765618 
-0.139432 0.002043 0.765127 
-0.140798 0.006534 0.765593 
-0.137055 0.012616 0.767430 
-0.140005 0.016418 0.767469 
-0.145826 0.019035 0.766702 
-0.150072 0.025304 0.767009 
-0.151907 0.035073 0.768922 
-0.144651 0.040452 0.772046 
-0.139498 0.044353 0.774343 
-0.128985 0.039187 0.774701 
-0.124543 0.040534 0.775901 
-0.122289 0.045337 0.777685 
-0.118602 0.048761 0.779362 
-0.110374 0.053098 0.781978 
-0.103513 0.048226 0.781531 
-0.100887 0.040672 0.780355 
-0.101892 0.034068 0.779078 
-0.098597 0.030149 0.779328 
-0.093106 0.026856 0.780428 
-0.087463 0.021871 0.781864 
-0.088719 0.014999 0.781366 
-0.094048 0.010956 0.779055 
-0.094982 0.011445 0.763135 
-0.093872 0.005426 0.762513 
-0.097338 0.000193 0.760655 
-0.103492 0.000331 0.759060 
-0.109974 0.001758 0.757735 
-0.113830 -0.001775 0.756227 
-0.121503 -0.003873 0.754180 
-0.131275 -0.003208 0.752229 
-0.138428 0.002643 0.751703 
-0.139582 0.007703 0.752290 
-0.135868 0.014068 0.754123 
-0.138125 0.018404 0.754365 
-0.143796 0.021165 0.753614 
-0.150411 0.027909 0.753329 
-0.150154 0.037804 0.755246 
-0.144544 0.044716 0.758009 
-0.135918 0.045944 0.760135 
-0.127050 0.042809 0.761274 
-0.122133 0.043929 0.762518 
-0.119728 0.049385 0.764194 
-0.115701 0.052148 0.765605 
-0.107803 0.053916 0.767490 
-0.100028 0.051646 0.768430 
-0.097247 0.043826 0.767480 
-0.098556 0.036705 0.766019 
-0.095237 0.032626 0.766099 
-0.089053 0.029404 0.767029 
-0.083627 0.024288 0.767708 
-0.083744 0.017086 0.766948 
-0.089062 0.012541 0.764924 
-0.093329 0.014677 0.748437 
-0.090982 0.008002 0.747857 
-0.093968 0.002149 0.746213 
-0.100901 0.003426 0.744900 
-0.107302 0.005136 0.743802 
-0.110989 0.001698 0.742430 
-0.118804 -0.002480 0.740074 
-0.126905 0.001601 0.739044 
-0.134784 0.005635 0.738043 
-0.135684 0.010692 0.738628 
-0.131136 0.017293 0.740636 
-0.132685 0.021382 0.740930 
-0.137851 0.023854 0.740124 
-0.146062 0.030251 0.739086 
-0.143915 0.039013 0.740951 
-0.139526 0.045737 0.743248 
-0.132836 0.048227 0.745396 
-0.123974 0.044935 0.746925 
-0.118735 0.044872 0.748129 
-0.116300 0.048958 0.749426 
-0.112698 0.054664 0.751284 
-0.104516 0.057435 0.753561 
-0.098492 0.051508 0.753736 
-0.094772 0.045721 0.753450 
-0.096469 0.038418 0.751807 
-0.092141 0.035080 0.752108 
-0.086061 0.031849 0.752789 
-0.083531 0.026677 0.752468 
-0.082253 0.019905 0.751686 
-0.086744 0.015323 0.749983 
-0.092754 0.017797 0.736304 
-0.091216 0.012253 0.735655 
-0.093569 0.006774 0.734248 
-0.100452 0.009285 0.733248 
-0.105494 0.009690 0.732256 
-0.108685 0.006112 0.730972 
-0.115286 0.004280 0.729259 
-0.122573 0.006737 0.728088 
-0.129884 0.009836 0.726971 
-0.129804 0.014949 0.727697 
-0.127601 0.019795 0.728903 
-0.128225 0.023866 0.729335 
-0.132652 0.026147 0.728490 
-0.139498 0.031887 0.727235 
-0.137740 0.039675 0.728763 
-0.134328 0.045941 0.730845 
-0.128359 0.048162 0.733110 
-0.119920 0.044371 0.734898 
-0.115765 0.045385 0.736203 
-0.113495 0.048948 0.737446 
-0.110210 0.053015 0.739029 
-0.103229 0.054866 0.741076 
-0.098041 0.049964 0.741343 
-0.093962 0.046037 0.741433 
-0.095659 0.039235 0.739753 
-0.091949 0.036192 0.739887 
-0.087927 0.033038 0.740031 
-0.083212 0.028848 0.740115 
-0.085664 0.023167 0.738639 
-0.087835 0.018842 0.737461 
-0.093772 0.020908 0.727441 
-0.093728 0.017272 0.726770 
-0.096183 0.013827 0.725657 
-0.100359 0.013973 0.724825 
-0.104837 0.015597 0.724159 
-0.107123 0.011094 0.722869 
-0.112618 0.009655 0.721414 
-0.118431 0.012138 0.720490 
-0.123096 0.015853 0.719921 
-0.124115 0.018969 0.720087 
-0.121723 0.023152 0.721312 
-0.123402 0.026009 0.721252 
-0.126866 0.027949 0.720475 
-0.130605 0.032444 0.719785 
-0.130509 0.038943 0.720610 
-0.128030 0.044260 0.722341 
-0.122126 0.044930 0.724632 
-0.116181 0.042775 0.726232 
-0.112499 0.042566 0.727322 
-0.110844 0.045485 0.728376 
-0.108364 0.049697 0.729922 
-0.102970 0.050364 0.731540 
-0.098257 0.047879 0.732186 
-0.096158 0.043165 0.731630 
-0.096466 0.038779 0.730604 
-0.093930 0.036057 0.730518 
-0.090955 0.033513 0.730519 
-0.088001 0.030185 0.730333 
-0.087055 0.025366 0.729534 
-0.090915 0.022327 0.728254 
-0.097045 0.024408 0.721767 
-0.096648 0.021550 0.721264 
-0.097836 0.018272 0.720379 
-0.101278 0.018812 0.719754 
-0.104436 0.019346 0.719152 
-0.106293 0.016430 0.718188 
-0.110455 0.015277 0.717013 
-0.115229 0.016544 0.716057 
-0.118413 0.019994 0.715751 
-0.118803 0.022622 0.716027 
-0.117675 0.025403 0.716776 
-0.117905 0.027893 0.717095 
-0.121706 0.029167 0.716060 
-0.124436 0.032666 0.715558 
-0.124807 0.037931 0.716103 
-0.120978 0.040807 0.718074 
-0.117814 0.042433 0.719572 
-0.113007 0.040396 0.720900 
-0.110546 0.041137 0.721854 
-0.109074 0.042767 0.722657 
-0.107171 0.045318 0.723788 
-0.102986 0.046771 0.725342 
-0.099567 0.044388 0.725711 
-0.097809 0.041014 0.725341 
-0.098448 0.037292 0.724322 
-0.096226 0.035445 0.724375 
-0.093962 0.033494 0.724372 
-0.091258 0.030973 0.724287 
-0.091262 0.027310 0.723482 
-0.093416 0.024736 0.722546 
-0.100758 0.027396 0.718749 
-0.100300 0.025553 0.718457 
-0.101262 0.023905 0.717894 
-0.103042 0.023834 0.717467 
-0.105115 0.024834 0.717167 
-0.106144 0.023494 0.716645 
-0.108405 0.022521 0.715884 
-0.110995 0.023254 0.715333 
-0.113169 0.024735 0.714986 
-0.113558 0.026167 0.715119 
-0.112548 0.027996 0.715743 
-0.112523 0.029446 0.716013 
-0.114248 0.030171 0.715603 
-0.116336 0.032086 0.715239 
-0.116277 0.034942 0.715744 
-0.114139 0.036545 0.716791 
-0.112599 0.037694 0.717546 
-0.109910 0.036603 0.718223 
-0.108376 0.036633 0.718712 
-0.107712 0.038331 0.719280 
-0.106568 0.039023 0.719782 
-0.104263 0.039953 0.720674 
-0.102219 0.038915 0.721004 
-0.101468 0.036660 0.720673 
-0.101664 0.034745 0.720179 
-0.100504 0.033639 0.720210 
-0.098798 0.032641 0.720377 
-0.098009 0.031096 0.720195 
-0.098153 0.029169 0.719724 
-0.099120 0.027760 0.719198 
-0.106692 0.030927 0.718037 
-0.106697 0.030957 0.718042 
-0.106680 0.030986 0.718052 
-0.106648 0.030987 0.718061 
-0.106614 0.030977 0.718069 
-0.106594 0.030999 0.718079 
-0.106552 0.031020 0.718095 
-0.106501 0.031010 0.718107 
-0.106473 0.030969 0.718106 
-0.106460 0.030949 0.718105 
-0.106480 0.030915 0.718093 
-0.106469 0.030892 0.718091 
-0.106439 0.030878 0.718096 
-0.106405 0.030842 0.718098 
-0.106412 0.030791 0.718085 
-0.106437 0.030752 0.718070 
-0.106478 0.030741 0.718057 
-0.106529 0.030765 0.718048 
-0.106552 0.030754 0.718039 
-0.106566 0.030734 0.718031 
-0.106586 0.030707 0.718020 
-0.106629 0.030694 0.718005 
-0.106666 0.030716 0.718000 
-0.106683 0.030754 0.718003 
-0.106681 0.030789 0.718011 
-0.106697 0.030814 0.718012 
-0.106725 0.030833 0.718008 
-0.106749 0.030861 0.718007 
-0.106754 0.030899 0.718014 
-0.106724 0.030922 0.718027 
-0.174548 -0.070235 0.703119 
-0.175003 -0.068511 0.702905 
-0.174697 -0.066192 0.702470 
-0.172083 -0.066703 0.702168 
-0.170106 -0.066784 0.701916 
-0.169155 -0.065088 0.701496 
-0.166742 -0.063762 0.700968 
-0.163953 -0.064643 0.700823 
-0.161355 -0.065712 0.700765 
-0.160846 -0.067232 0.701001 
-0.161476 -0.069139 0.701417 
-0.161236 -0.070653 0.701685 
-0.159528 -0.071212 0.701652 
-0.157120 -0.072837 0.701796 
-0.157101 -0.075680 0.702401 
-0.157995 -0.078184 0.703020 
-0.160324 -0.079162 0.703388 
-0.163338 -0.078457 0.703438 
-0.164806 -0.079028 0.703669 
-0.165357 -0.080776 0.704084 
-0.166467 -0.081978 0.704425 
-0.168949 -0.083452 0.704920 
-0.171276 -0.082219 0.704847 
-0.172609 -0.080228 0.704589 
-0.172594 -0.078034 0.704189 
-0.173775 -0.076826 0.704113 
-0.175584 -0.075947 0.704196 
-0.177234 -0.074564 0.704210 
-0.177634 -0.072436 0.703945 
-0.176311 -0.070840 0.703486 
-0.178210 -0.068215 0.705865 
-0.179653 -0.065055 0.705666 
-0.178278 -0.062096 0.704883 
-0.174485 -0.062628 0.704253 
-0.171314 -0.062947 0.703797 
-0.169910 -0.060015 0.703061 
-0.166098 -0.057998 0.702190 
-0.161395 -0.058683 0.701804 
-0.158207 -0.061783 0.702073 
-0.156708 -0.063386 0.702241 
-0.158327 -0.066816 0.703030 
-0.157578 -0.068917 0.703377 
-0.153630 -0.069473 0.703188 
-0.149847 -0.072252 0.703530 
-0.150984 -0.076720 0.704659 
-0.152542 -0.080535 0.705739 
-0.155593 -0.082500 0.706410 
-0.161006 -0.080765 0.706213 
-0.162966 -0.082158 0.706666 
-0.163965 -0.084534 0.707315 
-0.165570 -0.087205 0.708086 
-0.169543 -0.088844 0.708671 
-0.172969 -0.086381 0.708273 
-0.175304 -0.083870 0.707957 
-0.175076 -0.080231 0.707278 
-0.177372 -0.078677 0.707311 
-0.180142 -0.077203 0.707510 
-0.182948 -0.075006 0.707733 
-0.183505 -0.071560 0.707434 
-0.180956 -0.069130 0.706557 
-0.183937 -0.065802 0.706298 
-0.184779 -0.061816 0.705915 
-0.182685 -0.057785 0.704642 
-0.178182 -0.057372 0.703527 
-0.173312 -0.057990 0.702750 
-0.171238 -0.053347 0.701528 
-0.165434 -0.050597 0.700271 
-0.158274 -0.051487 0.699767 
-0.152919 -0.055577 0.700075 
-0.151509 -0.058919 0.700568 
-0.153468 -0.063725 0.701607 
-0.152057 -0.066844 0.702104 
-0.147916 -0.068184 0.702086 
-0.143347 -0.072130 0.702661 
-0.140689 -0.079214 0.704392 
-0.144456 -0.084714 0.706311 
-0.150448 -0.086700 0.707109 
-0.157533 -0.085092 0.706753 
-0.160872 -0.086570 0.707282 
-0.162260 -0.090260 0.708422 
-0.164809 -0.092972 0.709307 
-0.170461 -0.095981 0.710244 
-0.176018 -0.093954 0.709699 
-0.179013 -0.089186 0.708799 
-0.179075 -0.084234 0.707942 
-0.182467 -0.081808 0.708016 
-0.187483 -0.079859 0.708633 
-0.189924 -0.076066 0.708871 
-0.191321 -0.070955 0.708908 
-0.188513 -0.067057 0.707715 
-0.190452 -0.063806 0.702929 
-0.191307 -0.058488 0.702344 
-0.187929 -0.053572 0.700360 
-0.181873 -0.053161 0.698844 
-0.175721 -0.053270 0.697783 
-0.172576 -0.048550 0.696387 
-0.165128 -0.045159 0.694963 
-0.155520 -0.045224 0.694255 
-0.149116 -0.051459 0.694897 
-0.146453 -0.054979 0.695325 
-0.149707 -0.061804 0.696758 
-0.148101 -0.065898 0.697406 
-0.142239 -0.067464 0.697320 
-0.136109 -0.072606 0.698015 
-0.132706 -0.081863 0.700287 
-0.139163 -0.088250 0.702715 
-0.144558 -0.092304 0.704322 
-0.154885 -0.089338 0.703363 
-0.159403 -0.090836 0.703899 
-0.161029 -0.095872 0.705522 
-0.164042 -0.101155 0.707355 
-0.171630 -0.103799 0.708004 
-0.179243 -0.101991 0.707174 
-0.183478 -0.095897 0.705799 
-0.182569 -0.088186 0.704438 
-0.186161 -0.084653 0.704347 
-0.192514 -0.082361 0.705076 
-0.197789 -0.077995 0.705976 
-0.197132 -0.071303 0.705635 
-0.194891 -0.066087 0.704562 
-0.191847 -0.064648 0.695683 
-0.193272 -0.058773 0.695070 
-0.191787 -0.051406 0.693198 
-0.184909 -0.050589 0.691634 
-0.176865 -0.052571 0.690861 
-0.173537 -0.046867 0.689358 
-0.165200 -0.042651 0.687861 
-0.154682 -0.043431 0.687290 
-0.145497 -0.047773 0.687434 
-0.145141 -0.054559 0.688557 
-0.146605 -0.060607 0.689695 
-0.145027 -0.065633 0.690484 
-0.137308 -0.067284 0.690281 
-0.130812 -0.073547 0.691089 
-0.130584 -0.083617 0.693507 
-0.134108 -0.092208 0.696368 
-0.142723 -0.095322 0.697645 
-0.152905 -0.093406 0.697198 
-0.158561 -0.094591 0.697658 
-0.160753 -0.099409 0.699106 
-0.163904 -0.106689 0.701477 
-0.172870 -0.111123 0.702693 
-0.181548 -0.107709 0.701352 
-0.185230 -0.098924 0.699417 
-0.184992 -0.091334 0.698129 
-0.189811 -0.087811 0.698074 
-0.196935 -0.085057 0.698654 
-0.202895 -0.080045 0.699394 
-0.201097 -0.072369 0.698751 
-0.199663 -0.066172 0.697878 
-0.194093 -0.066848 0.679625 
-0.197125 -0.059752 0.678855 
-0.194058 -0.052887 0.677172 
-0.186451 -0.052384 0.676196 
-0.178400 -0.053640 0.675664 
-0.174722 -0.048091 0.674368 
-0.165991 -0.043668 0.672980 
-0.155473 -0.045570 0.672624 
-0.147475 -0.051466 0.673098 
-0.143764 -0.055008 0.673446 
-0.147888 -0.063321 0.675097 
-0.146011 -0.068157 0.675788 
-0.139017 -0.069988 0.675621 
-0.129176 -0.076051 0.675974 
-0.130420 -0.086530 0.678067 
-0.134601 -0.095139 0.680272 
-0.142836 -0.098672 0.681592 
-0.153705 -0.096177 0.681595 
-0.158745 -0.098762 0.682415 
-0.161501 -0.102807 0.683437 
-0.164755 -0.110781 0.685419 
-0.173952 -0.114103 0.686459 
-0.182592 -0.110412 0.685880 
-0.187079 -0.102706 0.684583 
-0.186959 -0.094872 0.683242 
-0.190793 -0.090387 0.682801 
-0.198556 -0.087933 0.683075 
-0.205378 -0.083064 0.683147 
-0.205642 -0.075013 0.682310 
-0.199675 -0.069308 0.680739 
-0.194850 -0.069749 0.663049 
-0.195069 -0.064490 0.662184 
-0.193743 -0.056981 0.660805 
-0.185929 -0.057308 0.660286 
-0.178825 -0.057826 0.659876 
-0.175242 -0.053295 0.658857 
-0.167338 -0.049959 0.657767 
-0.156461 -0.048189 0.656779 
-0.147692 -0.053190 0.657033 
-0.146571 -0.059261 0.657888 
-0.149496 -0.066436 0.659211 
-0.148193 -0.071365 0.659885 
-0.140645 -0.072925 0.659474 
-0.134406 -0.079032 0.659776 
-0.132626 -0.089152 0.661162 
-0.136166 -0.097667 0.663114 
-0.144389 -0.100943 0.664622 
-0.155089 -0.098377 0.665137 
-0.159862 -0.101197 0.666067 
-0.162623 -0.105150 0.667027 
-0.166101 -0.111254 0.668438 
-0.174578 -0.113518 0.669448 
-0.182688 -0.110853 0.669459 
-0.187513 -0.104616 0.668603 
-0.187293 -0.096902 0.667212 
-0.192067 -0.093286 0.666849 
-0.198998 -0.090520 0.666767 
-0.201826 -0.085099 0.666046 
-0.204684 -0.077983 0.665110 
-0.198775 -0.072624 0.663813 
-0.191884 -0.073596 0.649473 
-0.193283 -0.068381 0.648642 
-0.192247 -0.061497 0.647407 
-0.185103 -0.061940 0.647043 
-0.178158 -0.063909 0.646933 
-0.175578 -0.058216 0.645784 
-0.168404 -0.054474 0.644670 
-0.158963 -0.054250 0.643993 
-0.151573 -0.059057 0.644189 
-0.149604 -0.063463 0.644633 
-0.153466 -0.070780 0.646031 
-0.151361 -0.074596 0.646369 
-0.143680 -0.075824 0.645584 
-0.137265 -0.081551 0.645305 
-0.135348 -0.091220 0.646216 
-0.140748 -0.098151 0.648466 
-0.148655 -0.100510 0.650281 
-0.157896 -0.098302 0.651217 
-0.162210 -0.100429 0.652161 
-0.164513 -0.104022 0.653112 
-0.167400 -0.110326 0.654621 
-0.175116 -0.113077 0.655906 
-0.181996 -0.109323 0.655760 
-0.185333 -0.102665 0.654674 
-0.186830 -0.097987 0.653829 
-0.190476 -0.094215 0.653256 
-0.196462 -0.091772 0.653007 
-0.200653 -0.087312 0.652322 
-0.200996 -0.080641 0.651156 
-0.196870 -0.075648 0.650091 
-0.189455 -0.076507 0.639735 
-0.190087 -0.072363 0.638992 
-0.188932 -0.066902 0.637951 
-0.182956 -0.067493 0.637707 
-0.177743 -0.068157 0.637477 
-0.175391 -0.064032 0.636574 
-0.169557 -0.061747 0.635740 
-0.162664 -0.063017 0.635368 
-0.155772 -0.064974 0.634998 
-0.154887 -0.069212 0.635462 
-0.156403 -0.073941 0.636315 
-0.156091 -0.077838 0.636851 
-0.149810 -0.078790 0.635948 
-0.144444 -0.083383 0.635415 
-0.144759 -0.090700 0.636456 
-0.148754 -0.096048 0.638346 
-0.153083 -0.099235 0.639941 
-0.161087 -0.096983 0.641073 
-0.164847 -0.098154 0.641931 
-0.166531 -0.101341 0.642844 
-0.168959 -0.105319 0.644025 
-0.174831 -0.107444 0.645233 
-0.180272 -0.105154 0.645294 
-0.183149 -0.100382 0.644457 
-0.184220 -0.096501 0.643658 
-0.186365 -0.093024 0.642998 
-0.190604 -0.091073 0.642725 
-0.194036 -0.087803 0.642116 
-0.195902 -0.082684 0.641142 
-0.192356 -0.078627 0.640258 
-0.184632 -0.079686 0.633845 
-0.185008 -0.076783 0.633268 
-0.184669 -0.072438 0.632393 
-0.180109 -0.073151 0.632239 
-0.176393 -0.073620 0.632042 
-0.174851 -0.069901 0.631210 
-0.170375 -0.067275 0.630341 
-0.165291 -0.069187 0.630145 
-0.160282 -0.070874 0.629798 
-0.159291 -0.073717 0.630075 
-0.160728 -0.077486 0.630878 
-0.160058 -0.080214 0.631211 
-0.156716 -0.081286 0.630759 
-0.152562 -0.084496 0.630321 
-0.151371 -0.090153 0.630856 
-0.153940 -0.094628 0.632332 
-0.159181 -0.095698 0.633856 
-0.164058 -0.094995 0.634756 
-0.167140 -0.095451 0.635426 
-0.168047 -0.098952 0.636355 
-0.170157 -0.100771 0.637121 
-0.174505 -0.102640 0.638205 
-0.178841 -0.101621 0.638482 
-0.180695 -0.097319 0.637617 
-0.180861 -0.093747 0.636774 
-0.183081 -0.091779 0.636461 
-0.187102 -0.090662 0.636387 
-0.189724 -0.088035 0.635855 
-0.190328 -0.084004 0.634984 
-0.187235 -0.081050 0.634255 
-0.179923 -0.082228 0.630962 
-0.179687 -0.080752 0.630619 
-0.179233 -0.078505 0.630101 
-0.176977 -0.078512 0.629910 
-0.174792 -0.078816 0.629761 
-0.173790 -0.077158 0.629319 
-0.171372 -0.076056 0.628835 
-0.168475 -0.076555 0.628576 
-0.165822 -0.077679 0.628413 
-0.165512 -0.079433 0.628685 
-0.165785 -0.081115 0.629041 
-0.165497 -0.082716 0.629297 
-0.163342 -0.083252 0.629018 
-0.161554 -0.085118 0.629011 
-0.160477 -0.088351 0.629374 
-0.162763 -0.090519 0.630303 
-0.164443 -0.092037 0.630973 
-0.168017 -0.090855 0.631407 
-0.169518 -0.091432 0.631793 
-0.170037 -0.093446 0.632335 
-0.171139 -0.095307 0.632948 
-0.173758 -0.095959 0.633505 
-0.176019 -0.094585 0.633474 
-0.177242 -0.092506 0.633110 
-0.177304 -0.090424 0.632616 
-0.178968 -0.089543 0.632569 
-0.180502 -0.088472 0.632444 
-0.182178 -0.087071 0.632233 
-0.182110 -0.084862 0.631715 
-0.181010 -0.083172 0.631254 
-0.172168 -0.085416 0.630892 
-0.172156 -0.085450 0.630898 
-0.172166 -0.085492 0.630908 
-0.172207 -0.085495 0.630914 
-0.172254 -0.085477 0.630917 
-0.172269 -0.085523 0.630929 
-0.172315 -0.085533 0.630937 
-0.172374 -0.085537 0.630946 
-0.172415 -0.085501 0.630943 
-0.172422 -0.085472 0.630937 
-0.172408 -0.085434 0.630927 
-0.172421 -0.085411 0.630924 
-0.172466 -0.085403 0.630928 
-0.172505 -0.085368 0.630926 
-0.172504 -0.085311 0.630913 
-0.172468 -0.085270 0.630899 
-0.172433 -0.085247 0.630890 
-0.172374 -0.085264 0.630886 
-0.172350 -0.085249 0.630879 
-0.172339 -0.085214 0.630870 
-0.172317 -0.085196 0.630864 
-0.172272 -0.085169 0.630852 
-0.172227 -0.085186 0.630849 
-0.172199 -0.085220 0.630853 
-0.172202 -0.085266 0.630864 
-0.172175 -0.085287 0.630865 
-0.172139 -0.085304 0.630864 
-0.172106 -0.085331 0.630865 
-0.172117 -0.085373 0.630876 
-0.172130 -0.085405 0.630884 
-0.185462 0.029785 0.638458 
-0.183330 0.030536 0.638397 
-0.181331 0.029519 0.637963 
-0.181526 0.027134 0.637485 
-0.182247 0.024786 0.637108 
-0.180026 0.023813 0.636663 
-0.178792 0.021158 0.636030 
-0.179285 0.017929 0.635542 
-0.181234 0.015541 0.635407 
-0.182982 0.015175 0.635576 
-0.184859 0.015721 0.635905 
-0.186419 0.015203 0.636036 
-0.187075 0.012900 0.635795 
-0.189150 0.010498 0.635767 
-0.192398 0.010831 0.636316 
-0.194646 0.012925 0.636950 
-0.195839 0.015035 0.637415 
-0.194800 0.018311 0.637681 
-0.195767 0.019693 0.638018 
-0.196849 0.020610 0.638309 
-0.199119 0.021686 0.638809 
-0.200216 0.024480 0.639352 
-0.199054 0.027083 0.639549 
-0.196752 0.028492 0.639467 
-0.194114 0.028210 0.639102 
-0.192653 0.029322 0.639131 
-0.191651 0.031347 0.639406 
-0.190023 0.032870 0.639554 
-0.187662 0.033519 0.639477 
-0.186137 0.031375 0.638863 
-0.183017 0.033901 0.641849 
-0.180258 0.034129 0.641651 
-0.176327 0.033481 0.641070 
-0.177279 0.029268 0.640110 
-0.178133 0.025768 0.639428 
-0.174139 0.024315 0.638638 
-0.173417 0.020167 0.637743 
-0.174193 0.015325 0.637008 
-0.176409 0.011092 0.636633 
-0.178882 0.010123 0.636810 
-0.182247 0.011491 0.637457 
-0.184688 0.010630 0.637669 
-0.185855 0.007671 0.637430 
-0.188975 0.004493 0.637503 
-0.194230 0.003306 0.638299 
-0.197964 0.006471 0.639411 
-0.199541 0.010333 0.640159 
-0.198596 0.015032 0.640498 
-0.199323 0.017767 0.640960 
-0.201022 0.019195 0.641445 
-0.204448 0.020879 0.642298 
-0.205680 0.025148 0.642998 
-0.204249 0.029241 0.643238 
-0.200554 0.031305 0.643018 
-0.196812 0.031170 0.642558 
-0.194510 0.032922 0.642649 
-0.192883 0.035981 0.643152 
-0.190332 0.038406 0.643554 
-0.186678 0.038838 0.643450 
-0.183825 0.037276 0.642821 
-0.180192 0.039770 0.642758 
-0.175026 0.041474 0.642885 
-0.170243 0.039045 0.641496 
-0.171302 0.033028 0.639826 
-0.172828 0.027621 0.638690 
-0.167707 0.025313 0.637504 
-0.165595 0.019160 0.636051 
-0.167697 0.012237 0.635225 
-0.170322 0.005531 0.634602 
-0.174462 0.004605 0.634994 
-0.179832 0.007382 0.636073 
-0.182695 0.004654 0.636095 
-0.184696 0.001377 0.635959 
-0.189215 -0.006009 0.635778 
-0.196922 -0.005742 0.637375 
-0.202253 -0.000807 0.639210 
-0.204764 0.004592 0.640366 
-0.202210 0.012458 0.640457 
-0.204865 0.015462 0.641345 
-0.208126 0.017442 0.642293 
-0.211078 0.020307 0.643254 
-0.215198 0.026766 0.644716 
-0.212064 0.032776 0.644437 
-0.206357 0.035740 0.643879 
-0.200385 0.035061 0.643113 
-0.197263 0.037858 0.643364 
-0.195436 0.044063 0.644654 
-0.191252 0.046816 0.645355 
-0.185820 0.046140 0.645115 
-0.181706 0.043851 0.644202 
-0.177811 0.046257 0.639384 
-0.172260 0.046649 0.639025 
-0.166066 0.043897 0.637223 
-0.165808 0.037325 0.635189 
-0.167216 0.030254 0.633690 
-0.161308 0.026889 0.632149 
-0.158076 0.018621 0.630329 
-0.160338 0.008990 0.629296 
-0.166351 0.001970 0.629115 
-0.170694 -0.000185 0.629359 
-0.176686 0.001757 0.630344 
-0.181986 0.001611 0.631015 
-0.183724 -0.005832 0.630318 
-0.189876 -0.013616 0.630309 
-0.199761 -0.013168 0.632379 
-0.206686 -0.007023 0.634867 
-0.211425 -0.001779 0.636755 
-0.208558 0.008681 0.636701 
-0.209652 0.014182 0.637419 
-0.213940 0.016640 0.638698 
-0.219615 0.020090 0.640501 
-0.222421 0.028439 0.641603 
-0.220087 0.036711 0.641333 
-0.211913 0.040124 0.640238 
-0.205087 0.040137 0.639510 
-0.200675 0.043538 0.639752 
-0.198340 0.051933 0.641402 
-0.192635 0.054452 0.642216 
-0.185282 0.055893 0.643010 
-0.180009 0.051251 0.641293 
-0.177863 0.048982 0.631768 
-0.170176 0.051773 0.631871 
-0.162286 0.049097 0.629851 
-0.163910 0.039954 0.627667 
-0.165476 0.032014 0.626234 
-0.157884 0.028387 0.624518 
-0.157010 0.019217 0.623052 
-0.155456 0.007095 0.621320 
-0.162787 -0.001178 0.621151 
-0.169621 -0.001666 0.621880 
-0.176180 0.000404 0.622916 
-0.181657 -0.000873 0.623434 
-0.183571 -0.010003 0.622546 
-0.190786 -0.017648 0.622618 
-0.202349 -0.018253 0.624684 
-0.210148 -0.010614 0.627440 
-0.215094 -0.003996 0.629418 
-0.210388 0.008862 0.629299 
-0.212289 0.014317 0.630202 
-0.219304 0.016395 0.632017 
-0.224105 0.020690 0.633537 
-0.229972 0.030486 0.635532 
-0.223265 0.038681 0.634308 
-0.215922 0.043442 0.633513 
-0.207548 0.042764 0.632526 
-0.203751 0.048362 0.633050 
-0.200386 0.056314 0.634308 
-0.194285 0.061083 0.635438 
-0.185854 0.060724 0.635646 
-0.179556 0.056542 0.634231 
-0.179396 0.052120 0.614278 
-0.172792 0.053182 0.613773 
-0.165683 0.049958 0.612288 
-0.165881 0.041964 0.610929 
-0.165768 0.034545 0.609771 
-0.158801 0.030479 0.608324 
-0.157108 0.020914 0.606873 
-0.159144 0.009931 0.605751 
-0.163773 -0.000002 0.605065 
-0.170859 -0.000462 0.605799 
-0.178156 0.002565 0.607000 
-0.182997 -0.000459 0.607176 
-0.185281 -0.008917 0.606371 
-0.192743 -0.017446 0.606158 
-0.204681 -0.017453 0.607784 
-0.212657 -0.009518 0.610115 
-0.217008 -0.001884 0.611798 
-0.213180 0.010200 0.612524 
-0.216353 0.015404 0.613614 
-0.220903 0.018550 0.614699 
-0.227651 0.022673 0.616285 
-0.230464 0.032379 0.617676 
-0.227247 0.041677 0.618004 
-0.219150 0.046487 0.617393 
-0.210901 0.046379 0.616437 
-0.205291 0.049742 0.616293 
-0.202328 0.058336 0.617216 
-0.196601 0.065370 0.617923 
-0.187816 0.064521 0.617325 
-0.181139 0.060446 0.616053 
-0.182113 0.052896 0.596100 
-0.175401 0.054601 0.595570 
-0.168511 0.051411 0.594347 
-0.166717 0.044847 0.593268 
-0.169849 0.035949 0.592489 
-0.161923 0.032412 0.591116 
-0.161133 0.023291 0.589890 
-0.161034 0.011988 0.588493 
-0.168317 0.004449 0.588349 
-0.172958 0.001780 0.588489 
-0.179703 0.003874 0.589449 
-0.185790 0.003852 0.590081 
-0.187569 -0.005702 0.588895 
-0.194821 -0.011873 0.588631 
-0.205969 -0.012353 0.589689 
-0.215457 -0.008617 0.591514 
-0.217967 0.001382 0.593485 
-0.214251 0.012961 0.594735 
-0.217089 0.018036 0.595824 
-0.222455 0.020792 0.596908 
-0.228040 0.024985 0.598209 
-0.231506 0.034384 0.599858 
-0.227602 0.043032 0.600384 
-0.220097 0.047740 0.599969 
-0.212390 0.047901 0.599029 
-0.207552 0.052237 0.598939 
-0.204006 0.059179 0.599320 
-0.198368 0.064676 0.599357 
-0.190164 0.064406 0.598477 
-0.184260 0.059319 0.597182 
-0.185258 0.051586 0.581091 
-0.178670 0.054062 0.580584 
-0.172350 0.051146 0.579510 
-0.171816 0.044449 0.578649 
-0.174817 0.036595 0.578044 
-0.169527 0.033323 0.577014 
-0.165126 0.025389 0.575517 
-0.166356 0.015533 0.574405 
-0.171853 0.007934 0.573957 
-0.177277 0.006827 0.574281 
-0.183603 0.009353 0.575241 
-0.188438 0.008382 0.575547 
-0.190148 0.000458 0.574292 
-0.196555 -0.006569 0.573332 
-0.206845 -0.007296 0.573977 
-0.214600 -0.002309 0.576060 
-0.217779 0.005306 0.578195 
-0.213491 0.016568 0.579897 
-0.215978 0.021024 0.581024 
-0.221467 0.023254 0.582137 
-0.227109 0.027008 0.583509 
-0.229245 0.035482 0.585106 
-0.225708 0.043124 0.585675 
-0.217395 0.046037 0.584857 
-0.211661 0.046878 0.584129 
-0.207895 0.051256 0.584051 
-0.204358 0.056142 0.584033 
-0.199657 0.061242 0.583893 
-0.192528 0.060748 0.582960 
-0.187356 0.056634 0.581900 
-0.188674 0.048238 0.570192 
-0.183160 0.050579 0.569707 
-0.177696 0.048536 0.568798 
-0.178083 0.042534 0.568152 
-0.180331 0.036416 0.567677 
-0.175627 0.033903 0.566766 
-0.173652 0.027698 0.565704 
-0.174801 0.020324 0.564791 
-0.177689 0.013460 0.564024 
-0.181453 0.011814 0.564067 
-0.187171 0.014641 0.565091 
-0.190877 0.013319 0.565194 
-0.192610 0.008400 0.564299 
-0.197563 0.002995 0.563350 
-0.205642 0.002121 0.563747 
-0.211705 0.006150 0.565594 
-0.213444 0.012911 0.567677 
-0.211435 0.020400 0.569210 
-0.213442 0.024018 0.570279 
-0.216482 0.026166 0.571170 
-0.221912 0.028895 0.572524 
-0.224749 0.035794 0.574215 
-0.221368 0.041851 0.574619 
-0.215629 0.044913 0.574063 
-0.209312 0.044165 0.572923 
-0.206749 0.048058 0.572917 
-0.203823 0.051575 0.572765 
-0.200021 0.054791 0.572440 
-0.194408 0.056747 0.571791 
-0.190094 0.053115 0.570875 
-0.191194 0.045357 0.563451 
-0.187274 0.046550 0.562996 
-0.184325 0.043892 0.562280 
-0.183346 0.040510 0.561736 
-0.184566 0.036045 0.561317 
-0.181667 0.033947 0.560634 
-0.180116 0.029298 0.559758 
-0.180281 0.023426 0.558853 
-0.183785 0.019175 0.558478 
-0.186622 0.018152 0.558564 
-0.190058 0.019103 0.559116 
-0.193064 0.018450 0.559304 
-0.194323 0.014483 0.558504 
-0.198087 0.011305 0.558018 
-0.204154 0.010293 0.558301 
-0.208568 0.013623 0.559841 
-0.210504 0.017931 0.561364 
-0.209107 0.023583 0.562645 
-0.209827 0.026766 0.563504 
-0.212506 0.028229 0.564264 
-0.216253 0.030310 0.565341 
-0.217814 0.035288 0.566614 
-0.215660 0.039746 0.566993 
-0.211351 0.041903 0.566512 
-0.206760 0.041379 0.565604 
-0.204942 0.044307 0.565637 
-0.202892 0.047193 0.565575 
-0.200200 0.050652 0.565413 
-0.195798 0.051262 0.564740 
-0.192589 0.048309 0.563971 
-0.194286 0.040051 0.559927 
-0.192357 0.040246 0.559637 
-0.190182 0.039289 0.559165 
-0.189941 0.037085 0.558820 
-0.190641 0.034565 0.558549 
-0.188877 0.033395 0.558102 
-0.187130 0.030628 0.557405 
-0.187978 0.027362 0.556951 
-0.190139 0.025051 0.556791 
-0.191662 0.024370 0.556849 
-0.194003 0.025528 0.557399 
-0.195340 0.024474 0.557356 
-0.196041 0.022090 0.556910 
-0.198239 0.019975 0.556670 
-0.201498 0.020600 0.557253 
-0.204176 0.021994 0.557991 
-0.205013 0.024727 0.558815 
-0.204465 0.027632 0.559418 
-0.204723 0.029467 0.559866 
-0.206923 0.030100 0.560372 
-0.208862 0.031363 0.560978 
-0.209660 0.034214 0.561700 
-0.208468 0.036794 0.561954 
-0.206237 0.038249 0.561779 
-0.203246 0.037683 0.561141 
-0.201951 0.038965 0.561103 
-0.201195 0.041603 0.561333 
-0.199435 0.043075 0.561200 
-0.196982 0.042735 0.560727 
-0.195237 0.041270 0.560246 
-0.198077 0.032012 0.559319 
-0.198117 0.031999 0.559323 
-0.198155 0.032020 0.559333 
-0.198153 0.032064 0.559341 
-0.198144 0.032107 0.559347 
-0.198184 0.032127 0.559357 
-0.198208 0.032178 0.559371 
-0.198199 0.032239 0.559380 
-0.198161 0.032284 0.559382 
-0.198131 0.032295 0.559380 
-0.198091 0.032279 0.559370 
-0.198062 0.032292 0.559368 
-0.198046 0.032319 0.559370 
-0.198009 0.032372 0.559374 
-0.197947 0.032368 0.559363 
-0.197901 0.032333 0.559349 
-0.197883 0.032287 0.559338 
-0.197891 0.032235 0.559330 
-0.197889 0.032199 0.559323 
-0.197855 0.032186 0.559315 
-0.197818 0.032165 0.559305 
-0.197804 0.032114 0.559294 
-0.197823 0.032066 0.559288 
-0.197870 0.032045 0.559292 
-0.197913 0.032045 0.559299 
-0.197940 0.032024 0.559299 
-0.197954 0.031973 0.559292 
-0.197988 0.031956 0.559295 
-0.198032 0.031952 0.559301 
-0.198068 0.031968 0.559309 
0.042839 0.116087 0.729656 
0.042056 0.113571 0.729335 
0.038660 0.113929 0.728332 
0.036410 0.115257 0.727775 
0.033840 0.118105 0.727303 
0.034490 0.120053 0.727645 
0.033548 0.121746 0.727572 
0.035570 0.124576 0.728441 
0.037705 0.125710 0.729169 
0.040032 0.126643 0.729937 
0.042466 0.125448 0.730389 
0.044795 0.124159 0.730823 
0.046198 0.122111 0.730970 
0.045353 0.120320 0.730596 
0.045405 0.115683 0.730411 
0.044307 0.113261 0.731727 
0.042810 0.109622 0.731226 
0.037446 0.110041 0.729407 
0.034137 0.112585 0.728565 
0.029890 0.116837 0.727753 
0.031133 0.119915 0.728346 
0.028918 0.122715 0.728073 
0.032745 0.126900 0.729673 
0.035977 0.128740 0.730918 
0.039583 0.130190 0.732267 
0.043657 0.128891 0.733057 
0.046682 0.125970 0.733261 
0.049106 0.123056 0.733498 
0.048853 0.120356 0.733227 
0.047494 0.113478 0.732795 
0.046330 0.110298 0.732185 
0.044035 0.105497 0.731446 
0.036426 0.105308 0.728521 
0.031547 0.109090 0.727306 
0.025563 0.115456 0.726272 
0.026713 0.119900 0.726932 
0.023833 0.124034 0.726628 
0.029761 0.129905 0.729093 
0.033870 0.133557 0.731233 
0.039418 0.135274 0.733522 
0.045576 0.133352 0.734557 
0.050151 0.128940 0.734420 
0.053710 0.124564 0.734489 
0.052575 0.120534 0.733916 
0.051067 0.110447 0.733972 
0.049319 0.106946 0.730237 
0.046120 0.100655 0.729106 
0.036167 0.101516 0.725164 
0.029144 0.105294 0.723502 
0.021067 0.114031 0.722268 
0.023568 0.120072 0.723333 
0.019480 0.125490 0.722831 
0.026649 0.133795 0.725914 
0.032641 0.137923 0.728912 
0.039872 0.140077 0.732070 
0.047708 0.137060 0.733036 
0.053959 0.131885 0.732847 
0.059464 0.126452 0.732879 
0.057841 0.120979 0.732122 
0.055674 0.107269 0.732755 
0.051032 0.106389 0.725635 
0.048113 0.097908 0.724564 
0.036588 0.099257 0.720431 
0.029095 0.104274 0.718903 
0.020517 0.113869 0.717656 
0.021716 0.120369 0.718432 
0.017523 0.126549 0.717953 
0.025642 0.136142 0.721201 
0.033161 0.139584 0.724205 
0.040907 0.143512 0.727857 
0.049676 0.139388 0.728765 
0.056718 0.133690 0.728820 
0.064152 0.127954 0.729214 
0.061855 0.121477 0.728234 
0.058089 0.106629 0.728143 
0.054163 0.106172 0.715158 
0.050866 0.097799 0.713829 
0.038901 0.100344 0.710684 
0.030198 0.103560 0.708862 
0.021367 0.114171 0.707654 
0.023066 0.121106 0.708541 
0.019279 0.127421 0.708126 
0.028274 0.136656 0.711058 
0.034772 0.142244 0.713485 
0.043499 0.144127 0.716109 
0.052796 0.141568 0.717973 
0.059893 0.135140 0.718618 
0.066561 0.128756 0.719292 
0.064496 0.122265 0.718312 
0.061653 0.106661 0.717225 
0.056118 0.107781 0.704136 
0.052694 0.100844 0.702826 
0.041557 0.102258 0.700291 
0.033582 0.105664 0.698707 
0.025095 0.115393 0.697488 
0.026080 0.121936 0.698067 
0.022211 0.128152 0.697458 
0.030112 0.138298 0.699736 
0.037514 0.142518 0.702093 
0.046000 0.145130 0.704667 
0.054863 0.141393 0.706601 
0.062056 0.135701 0.707844 
0.067290 0.129081 0.708441 
0.064574 0.123002 0.707281 
0.064396 0.107381 0.706041 
0.057299 0.109711 0.695060 
0.054011 0.103823 0.693819 
0.043958 0.104572 0.691575 
0.036931 0.108072 0.690206 
0.029389 0.116796 0.689005 
0.031850 0.122700 0.689699 
0.028300 0.127926 0.688792 
0.034662 0.136671 0.690422 
0.040765 0.140625 0.692585 
0.048077 0.142727 0.695133 
0.056055 0.140200 0.697391 
0.062625 0.135144 0.698839 
0.066772 0.129025 0.699273 
0.065560 0.123758 0.698396 
0.064035 0.110107 0.696572 
0.056989 0.112780 0.688433 
0.054388 0.107803 0.687342 
0.046362 0.109140 0.685576 
0.040756 0.111632 0.684391 
0.034275 0.118381 0.683061 
0.035947 0.123225 0.683443 
0.033466 0.127533 0.682512 
0.038600 0.134801 0.683790 
0.044010 0.137262 0.685950 
0.049686 0.139789 0.688265 
0.055715 0.136603 0.690338 
0.060501 0.132568 0.691594 
0.064307 0.128271 0.692179 
0.062494 0.124059 0.691159 
0.062264 0.113269 0.689645 
0.055715 0.116250 0.684276 
0.054137 0.111905 0.683398 
0.048072 0.112866 0.681967 
0.044117 0.115115 0.681071 
0.039645 0.120093 0.679950 
0.040450 0.123534 0.680140 
0.038887 0.126658 0.679452 
0.042602 0.131939 0.680546 
0.046301 0.134500 0.682074 
0.050739 0.135164 0.684021 
0.055117 0.133378 0.685733 
0.058828 0.130630 0.686868 
0.062003 0.127503 0.687498 
0.060415 0.124206 0.686583 
0.059933 0.116167 0.685286 
0.053961 0.119607 0.682063 
0.052949 0.117546 0.681552 
0.049602 0.117532 0.680585 
0.047109 0.118552 0.679908 
0.044806 0.121725 0.679287 
0.045393 0.123694 0.679508 
0.044276 0.125498 0.679086 
0.046603 0.128388 0.679949 
0.048641 0.130013 0.680787 
0.051223 0.130388 0.681875 
0.053890 0.129726 0.682920 
0.055937 0.127883 0.683551 
0.057791 0.126027 0.683995 
0.056815 0.124081 0.683449 
0.056214 0.119621 0.682716 
0.051039 0.123837 0.681524 
0.051059 0.123874 0.681534 
0.051123 0.123872 0.681555 
0.051163 0.123844 0.681568 
0.051205 0.123791 0.681579 
0.051202 0.123757 0.681575 
0.051224 0.123723 0.681580 
0.051180 0.123669 0.681562 
0.051137 0.123648 0.681545 
0.051092 0.123635 0.681529 
0.051045 0.123649 0.681514 
0.051006 0.123679 0.681503 
0.050972 0.123714 0.681493 
0.050992 0.123750 0.681503 
0.050993 0.123838 0.681509 
-0.003033 0.081981 0.686433 
-0.003445 0.084952 0.686064 
0.000391 0.086351 0.685193 
0.003533 0.086840 0.684647 
0.007764 0.084926 0.684427 
0.008271 0.082591 0.684782 
0.010259 0.081347 0.684797 
0.009813 0.077123 0.685706 
0.008360 0.074439 0.686455 
0.006133 0.072173 0.687200 
0.002734 0.072155 0.687496 
-0.000535 0.072177 0.687802 
-0.003414 0.073362 0.687888 
-0.003632 0.075794 0.687493 
-0.005530 0.080801 0.687043 
-0.005948 0.083859 0.688714 
-0.006156 0.088138 0.688172 
-0.000592 0.090936 0.686567 
0.004299 0.090737 0.685806 
0.010760 0.088102 0.685421 
0.012405 0.085045 0.685774 
0.015192 0.082845 0.685899 
0.013481 0.076409 0.687490 
0.011322 0.072539 0.688712 
0.008134 0.069183 0.689951 
0.003209 0.068100 0.690566 
-0.001852 0.068700 0.690734 
-0.006438 0.070329 0.690803 
-0.006986 0.074000 0.690255 
-0.010245 0.082092 0.689928 
-0.010209 0.086025 0.689105 
-0.011068 0.093053 0.688416 
-0.002154 0.096537 0.685517 
0.005211 0.096447 0.684358 
0.014624 0.092051 0.683985 
0.016669 0.087354 0.684559 
0.021989 0.084545 0.684531 
0.019977 0.074508 0.687078 
0.016343 0.068588 0.689335 
0.011173 0.063755 0.691523 
0.003656 0.061742 0.692432 
-0.004082 0.063086 0.692027 
-0.011316 0.065232 0.691820 
-0.012062 0.070952 0.691033 
-0.016218 0.083311 0.691165 
-0.014432 0.087530 0.686247 
-0.015288 0.096452 0.685217 
-0.003819 0.100919 0.681397 
0.005969 0.102470 0.679803 
0.018458 0.095807 0.679599 
0.021212 0.089523 0.680319 
0.028050 0.085679 0.680287 
0.025676 0.072275 0.683546 
0.021339 0.063972 0.686960 
0.014008 0.057696 0.690147 
0.003650 0.056704 0.690412 
-0.006091 0.058310 0.689668 
-0.014890 0.061305 0.689043 
-0.016833 0.067728 0.688295 
-0.021066 0.083675 0.688662 
-0.017634 0.088024 0.680824 
-0.017482 0.097194 0.679373 
-0.005461 0.104230 0.675423 
0.005667 0.102820 0.674374 
0.019831 0.096931 0.673917 
0.023642 0.090341 0.674563 
0.029503 0.085385 0.674783 
0.026572 0.071025 0.677978 
0.022601 0.061658 0.681291 
0.015177 0.053652 0.684928 
0.003377 0.051621 0.685739 
-0.008204 0.053499 0.684988 
-0.018156 0.057639 0.684099 
-0.018606 0.066100 0.682936 
-0.026575 0.083710 0.683760 
-0.019691 0.086434 0.667698 
-0.020118 0.096562 0.666219 
-0.007020 0.103957 0.663154 
0.004985 0.103637 0.662007 
0.019496 0.095933 0.661809 
0.022543 0.088533 0.662616 
0.029629 0.083870 0.662622 
0.027668 0.068422 0.665352 
0.022339 0.058914 0.667931 
0.014257 0.050872 0.670622 
0.002067 0.049873 0.671643 
-0.009186 0.052164 0.671821 
-0.019412 0.055669 0.671834 
-0.020883 0.063546 0.670766 
-0.028948 0.081751 0.669794 
-0.020096 0.083960 0.654167 
-0.021459 0.094576 0.652697 
-0.007738 0.100164 0.650422 
0.003388 0.099352 0.649478 
0.017477 0.093145 0.649059 
0.020402 0.086021 0.649705 
0.027349 0.081550 0.649500 
0.023723 0.067074 0.651786 
0.020596 0.057280 0.653841 
0.012393 0.050010 0.656247 
0.000694 0.049593 0.657631 
-0.010737 0.049427 0.658809 
-0.019441 0.054846 0.658677 
-0.021994 0.061568 0.657796 
-0.028537 0.079336 0.655710 
-0.018405 0.080923 0.643064 
-0.019007 0.089525 0.641755 
-0.007526 0.093949 0.640000 
0.002100 0.096138 0.638735 
0.015147 0.090135 0.638254 
0.015965 0.082408 0.638959 
0.023956 0.079162 0.638074 
0.021567 0.065537 0.639683 
0.016873 0.057632 0.641943 
0.009507 0.051763 0.644449 
-0.000517 0.050743 0.646290 
-0.010491 0.050989 0.647604 
-0.018723 0.054852 0.647736 
-0.019060 0.062163 0.646414 
-0.025616 0.076862 0.644291 
-0.016342 0.078294 0.635096 
-0.016219 0.084888 0.633947 
-0.007224 0.088878 0.632447 
0.000453 0.089551 0.631516 
0.011010 0.085413 0.630716 
0.012524 0.079694 0.630986 
0.017715 0.076481 0.630144 
0.015281 0.065935 0.631620 
0.011462 0.059971 0.633604 
0.006540 0.054370 0.635920 
-0.001527 0.052676 0.638066 
-0.009035 0.055367 0.638896 
-0.016129 0.057066 0.639394 
-0.017025 0.062520 0.638300 
-0.021334 0.074697 0.636096 
-0.012769 0.075504 0.630211 
-0.013816 0.081319 0.629196 
-0.006756 0.084646 0.627884 
-0.000783 0.084270 0.627191 
0.006791 0.080817 0.626437 
0.007920 0.076698 0.626643 
0.011588 0.074330 0.625951 
0.010639 0.066435 0.627009 
0.007466 0.061930 0.628714 
0.003667 0.057744 0.630640 
-0.002418 0.057316 0.632352 
-0.008451 0.057366 0.633599 
-0.013064 0.060070 0.633669 
-0.014027 0.063895 0.632877 
-0.017364 0.073151 0.631064 
-0.008951 0.073082 0.627730 
-0.009359 0.076261 0.627131 
-0.005399 0.078193 0.626226 
-0.002046 0.077925 0.625744 
0.002357 0.076168 0.625181 
0.003162 0.073880 0.625331 
0.004686 0.072329 0.625169 
0.004508 0.067887 0.625862 
0.002725 0.065205 0.626828 
0.000248 0.063219 0.627898 
-0.003015 0.062443 0.628895 
-0.006216 0.063233 0.629430 
-0.009410 0.063888 0.629855 
-0.009587 0.066472 0.629280 
-0.011672 0.071764 0.628352 
-0.003266 0.070230 0.627393 
-0.003257 0.070171 0.627403 
-0.003334 0.070147 0.627423 
-0.003393 0.070146 0.627435 
-0.003476 0.070171 0.627447 
-0.003481 0.070219 0.627438 
-0.003530 0.070239 0.627444 
-0.003503 0.070321 0.627422 
-0.003477 0.070372 0.627408 
-0.003435 0.070412 0.627391 
-0.003375 0.070429 0.627376 
-0.003313 0.070420 0.627366 
-0.003259 0.070397 0.627359 
-0.003254 0.070351 0.627367 
-0.003213 0.070253 0.627378 
