-0.042436 -0.037491 0.570839 
-0.043312 -0.036287 0.570634 
-0.044191 -0.034841 0.570368 
-0.042616 -0.033475 0.569769 
-0.040848 -0.032278 0.569220 
-0.039457 -0.030844 0.568674 
-0.038068 -0.029476 0.568163 
-0.035967 -0.029892 0.568091 
-0.034106 -0.030161 0.568019 
-0.033407 -0.031408 0.568307 
-0.031928 -0.031973 0.568365 
-0.030444 -0.031995 0.568286 
-0.029228 -0.032817 0.568454 
-0.028390 -0.034445 0.568884 
-0.028849 -0.036642 0.569545 
-0.029322 -0.038129 0.570003 
-0.028624 -0.039583 0.570430 
-0.027956 -0.041174 0.570923 
-0.029112 -0.042631 0.571395 
-0.031049 -0.043630 0.571727 
-0.033157 -0.043383 0.571698 
-0.034715 -0.044274 0.572018 
-0.035747 -0.044919 0.572251 
-0.037382 -0.045596 0.572530 
-0.038795 -0.045427 0.572577 
-0.039371 -0.044342 0.572328 
-0.039981 -0.043252 0.572090 
-0.042370 -0.041522 0.571900 
-0.043935 -0.040173 0.571761 
-0.043621 -0.038465 0.571264 
-0.045785 -0.036851 0.573291 
-0.047856 -0.034807 0.573129 
-0.048319 -0.032785 0.572634 
-0.046195 -0.030548 0.571561 
-0.043293 -0.028849 0.570612 
-0.041279 -0.026375 0.569648 
-0.039065 -0.024280 0.568829 
-0.035734 -0.024284 0.568542 
-0.033016 -0.026086 0.568821 
-0.031678 -0.027238 0.569040 
-0.029752 -0.028711 0.569324 
-0.027190 -0.028390 0.569101 
-0.024187 -0.028871 0.569110 
-0.023007 -0.031751 0.569931 
-0.024595 -0.035548 0.571151 
-0.025451 -0.037860 0.571909 
-0.023787 -0.040215 0.572741 
-0.023659 -0.042381 0.573542 
-0.024760 -0.044992 0.574477 
-0.028138 -0.046312 0.574784 
-0.031121 -0.046489 0.574754 
-0.033792 -0.047472 0.575058 
-0.035436 -0.048046 0.575255 
-0.037976 -0.049593 0.575780 
-0.040090 -0.049026 0.575727 
-0.041226 -0.047901 0.575516 
-0.042141 -0.046051 0.575131 
-0.046059 -0.043337 0.575024 
-0.048510 -0.041102 0.574963 
-0.047636 -0.038338 0.574059 
-0.050962 -0.036613 0.573949 
-0.052813 -0.033751 0.573593 
-0.053297 -0.030956 0.572816 
-0.051512 -0.027063 0.571060 
-0.047017 -0.024609 0.569472 
-0.044064 -0.020694 0.567919 
-0.040602 -0.017774 0.566784 
-0.035568 -0.017643 0.566399 
-0.031273 -0.019754 0.566673 
-0.029557 -0.022448 0.567266 
-0.026387 -0.024215 0.567553 
-0.022221 -0.023483 0.567155 
-0.019273 -0.025463 0.567580 
-0.018187 -0.029778 0.568844 
-0.017432 -0.034497 0.570433 
-0.019707 -0.038190 0.571730 
-0.018471 -0.041463 0.573091 
-0.016979 -0.044990 0.574822 
-0.019480 -0.048448 0.576116 
-0.024274 -0.050611 0.576413 
-0.029146 -0.050177 0.575740 
-0.032786 -0.052029 0.576186 
-0.035092 -0.054031 0.576754 
-0.038888 -0.055474 0.577088 
-0.042215 -0.055296 0.577065 
-0.043894 -0.053482 0.576715 
-0.045679 -0.051261 0.576388 
-0.050568 -0.046127 0.576167 
-0.054577 -0.042933 0.576587 
-0.054116 -0.038863 0.575462 
-0.056783 -0.037115 0.571502 
-0.059041 -0.033218 0.570960 
-0.059088 -0.029682 0.569688 
-0.056630 -0.024644 0.567180 
-0.051223 -0.020800 0.565006 
-0.046507 -0.016811 0.563343 
-0.042018 -0.013175 0.562062 
-0.035558 -0.012015 0.561416 
-0.030096 -0.015648 0.562018 
-0.027552 -0.018289 0.562533 
-0.023777 -0.021248 0.563076 
-0.018606 -0.020493 0.562626 
-0.014349 -0.022663 0.563000 
-0.012803 -0.028243 0.564557 
-0.011873 -0.034432 0.566640 
-0.015937 -0.039206 0.568319 
-0.012307 -0.043683 0.570449 
-0.011602 -0.047942 0.572642 
-0.015347 -0.052082 0.574112 
-0.021105 -0.055123 0.574562 
-0.026708 -0.055755 0.574021 
-0.031939 -0.057385 0.574105 
-0.034922 -0.060640 0.574979 
-0.040099 -0.062949 0.575292 
-0.044123 -0.061238 0.574706 
-0.045871 -0.058119 0.574058 
-0.048152 -0.055534 0.573707 
-0.055641 -0.050040 0.574027 
-0.059033 -0.045131 0.574162 
-0.059515 -0.040117 0.573215 
-0.057922 -0.038544 0.565513 
-0.060793 -0.034383 0.564956 
-0.063225 -0.029690 0.563911 
-0.060678 -0.023569 0.561118 
-0.052858 -0.020563 0.559187 
-0.047928 -0.015713 0.557430 
-0.043012 -0.011273 0.556020 
-0.035752 -0.010625 0.555488 
-0.029029 -0.012044 0.555483 
-0.027119 -0.017952 0.556813 
-0.021620 -0.019222 0.556836 
-0.015753 -0.018629 0.556391 
-0.010040 -0.020695 0.556621 
-0.008845 -0.027757 0.558484 
-0.010389 -0.035505 0.560941 
-0.012336 -0.040737 0.562747 
-0.010255 -0.045636 0.564743 
-0.007310 -0.051164 0.567569 
-0.012494 -0.055635 0.568944 
-0.019809 -0.058380 0.569140 
-0.025500 -0.059925 0.569117 
-0.031355 -0.062670 0.569587 
-0.035015 -0.065627 0.570284 
-0.040732 -0.066404 0.570149 
-0.045509 -0.065738 0.569842 
-0.047876 -0.063033 0.569283 
-0.050374 -0.059773 0.568780 
-0.058921 -0.053399 0.568880 
-0.062017 -0.047499 0.568658 
-0.063484 -0.041914 0.567892 
-0.059706 -0.041720 0.552235 
-0.064203 -0.037089 0.551576 
-0.065333 -0.032450 0.550401 
-0.062145 -0.026137 0.548233 
-0.054571 -0.022286 0.546608 
-0.049065 -0.017545 0.545068 
-0.043919 -0.012898 0.543664 
-0.036364 -0.013233 0.543356 
-0.030000 -0.016213 0.543737 
-0.026794 -0.018696 0.544159 
-0.022486 -0.022483 0.544830 
-0.016444 -0.021628 0.544294 
-0.011336 -0.024135 0.544604 
-0.007528 -0.029970 0.545824 
-0.010251 -0.038461 0.548227 
-0.012679 -0.043842 0.549841 
-0.010003 -0.049032 0.551331 
-0.007597 -0.054705 0.553173 
-0.011225 -0.060349 0.555009 
-0.019975 -0.062269 0.555462 
-0.025720 -0.064005 0.555943 
-0.032005 -0.065980 0.556511 
-0.035695 -0.068837 0.557314 
-0.041619 -0.070823 0.557874 
-0.046701 -0.070283 0.557819 
-0.048508 -0.066025 0.556885 
-0.051314 -0.063235 0.556391 
-0.060517 -0.057188 0.555832 
-0.065390 -0.051723 0.555307 
-0.063289 -0.045231 0.553557 
-0.060144 -0.045018 0.538512 
-0.061909 -0.041008 0.537645 
-0.064509 -0.036304 0.536652 
-0.060601 -0.030813 0.535048 
-0.054137 -0.026741 0.533678 
-0.048701 -0.022866 0.532439 
-0.043863 -0.019250 0.531313 
-0.037036 -0.016337 0.530269 
-0.030412 -0.018399 0.530397 
-0.028199 -0.023549 0.531441 
-0.023573 -0.026259 0.531754 
-0.018192 -0.025947 0.531292 
-0.012544 -0.027814 0.531226 
-0.011271 -0.034639 0.532635 
-0.011743 -0.041938 0.534501 
-0.013796 -0.047105 0.536059 
-0.011210 -0.052187 0.537236 
-0.008893 -0.057764 0.538665 
-0.012165 -0.063519 0.540524 
-0.020918 -0.065275 0.541496 
-0.027198 -0.065797 0.541985 
-0.033170 -0.067085 0.542633 
-0.036487 -0.070251 0.543599 
-0.042121 -0.073115 0.544545 
-0.046916 -0.072373 0.544530 
-0.049252 -0.069491 0.543906 
-0.051667 -0.066054 0.543158 
-0.058233 -0.058575 0.541645 
-0.064516 -0.054563 0.541050 
-0.062323 -0.048384 0.539455 
-0.057250 -0.047813 0.527139 
-0.059922 -0.044183 0.526361 
-0.062411 -0.039909 0.525444 
-0.058761 -0.035043 0.524097 
-0.051873 -0.032687 0.523175 
-0.048185 -0.027817 0.521792 
-0.043984 -0.023914 0.520623 
-0.037713 -0.022533 0.519940 
-0.031991 -0.024763 0.520066 
-0.029662 -0.028305 0.520653 
-0.026289 -0.031941 0.521135 
-0.020829 -0.030820 0.520272 
-0.014984 -0.032001 0.519685 
-0.013318 -0.038175 0.520685 
-0.013609 -0.045025 0.522497 
-0.017011 -0.049764 0.524411 
-0.015306 -0.054134 0.525442 
-0.013137 -0.059021 0.526639 
-0.016356 -0.063725 0.528489 
-0.023766 -0.065334 0.529781 
-0.028870 -0.066424 0.530588 
-0.034128 -0.068035 0.531461 
-0.037216 -0.069891 0.532164 
-0.041889 -0.071045 0.532699 
-0.046642 -0.073068 0.533358 
-0.048424 -0.069634 0.532499 
-0.050534 -0.066523 0.531719 
-0.057428 -0.060631 0.530304 
-0.061497 -0.056191 0.529307 
-0.060493 -0.050855 0.527993 
-0.054889 -0.049849 0.518983 
-0.056641 -0.046827 0.518260 
-0.058371 -0.043380 0.517462 
-0.055195 -0.039548 0.516389 
-0.050361 -0.036857 0.515479 
-0.046902 -0.033341 0.514399 
-0.043279 -0.030839 0.513549 
-0.038325 -0.031090 0.513229 
-0.033603 -0.031089 0.512790 
-0.031999 -0.034669 0.513421 
-0.028319 -0.036101 0.513256 
-0.024907 -0.036496 0.512791 
-0.020122 -0.037365 0.512027 
-0.018665 -0.042220 0.512812 
-0.020160 -0.047881 0.514762 
-0.022632 -0.051482 0.516406 
-0.019657 -0.055277 0.517009 
-0.018439 -0.059110 0.518056 
-0.021647 -0.062433 0.519797 
-0.027168 -0.063944 0.521182 
-0.031597 -0.064112 0.521823 
-0.035579 -0.065346 0.522620 
-0.037892 -0.067202 0.523370 
-0.041583 -0.068581 0.523983 
-0.045278 -0.070023 0.524487 
-0.046335 -0.066471 0.523473 
-0.047813 -0.063917 0.522746 
-0.053151 -0.059647 0.521542 
-0.057446 -0.056727 0.520759 
-0.056486 -0.052334 0.519645 
-0.050444 -0.051204 0.513926 
-0.051618 -0.049072 0.513362 
-0.053382 -0.046434 0.512701 
-0.050778 -0.043807 0.511905 
-0.047343 -0.041878 0.511205 
-0.045190 -0.038713 0.510217 
-0.042647 -0.036039 0.509326 
-0.038739 -0.037082 0.509216 
-0.035251 -0.037305 0.508856 
-0.033931 -0.039639 0.509263 
-0.031322 -0.040982 0.509193 
-0.028382 -0.040879 0.508610 
-0.025990 -0.042438 0.508483 
-0.024713 -0.045729 0.509076 
-0.024777 -0.049697 0.510306 
-0.026289 -0.052533 0.511603 
-0.025800 -0.055086 0.512358 
-0.023630 -0.058379 0.513012 
-0.026580 -0.060548 0.514453 
-0.029832 -0.062536 0.515769 
-0.033820 -0.061772 0.516118 
-0.036690 -0.062858 0.516829 
-0.038378 -0.064799 0.517635 
-0.041160 -0.065265 0.517975 
-0.043609 -0.065340 0.518091 
-0.044708 -0.063658 0.517578 
-0.046207 -0.062370 0.517192 
-0.050380 -0.058922 0.516142 
-0.053119 -0.056366 0.515387 
-0.052040 -0.053016 0.514459 
-0.046155 -0.051951 0.511352 
-0.046421 -0.050744 0.510997 
-0.047150 -0.049329 0.510609 
-0.046081 -0.047622 0.510047 
-0.044050 -0.046522 0.509583 
-0.042591 -0.045119 0.509050 
-0.041138 -0.043958 0.508573 
-0.039070 -0.044043 0.508367 
-0.037170 -0.044353 0.508212 
-0.036543 -0.045842 0.508562 
-0.034822 -0.046088 0.508372 
-0.033218 -0.046100 0.508099 
-0.031641 -0.046815 0.508014 
-0.031369 -0.048918 0.508613 
-0.031101 -0.051083 0.509261 
-0.032525 -0.052688 0.510077 
-0.031156 -0.054355 0.510383 
-0.031011 -0.055872 0.510886 
-0.032200 -0.057333 0.511630 
-0.034020 -0.058482 0.512347 
-0.036000 -0.058561 0.512663 
-0.037844 -0.058903 0.513008 
-0.038876 -0.059453 0.513307 
-0.040453 -0.060028 0.513644 
-0.041854 -0.060014 0.513736 
-0.042678 -0.059479 0.513604 
-0.043155 -0.058011 0.513140 
-0.045588 -0.056226 0.512667 
-0.046825 -0.054705 0.512229 
-0.046710 -0.052994 0.511696 
-0.039175 -0.052177 0.510915 
-0.039156 -0.052200 0.510920 
-0.039143 -0.052227 0.510927 
-0.039160 -0.052261 0.510940 
-0.039209 -0.052272 0.510949 
-0.039228 -0.052311 0.510964 
-0.039258 -0.052324 0.510972 
-0.039297 -0.052334 0.510979 
-0.039330 -0.052314 0.510976 
-0.039342 -0.052289 0.510970 
-0.039367 -0.052276 0.510968 
-0.039402 -0.052284 0.510974 
-0.039435 -0.052275 0.510975 
-0.039445 -0.052237 0.510964 
-0.039435 -0.052193 0.510948 
-0.039413 -0.052164 0.510936 
-0.039432 -0.052135 0.510929 
-0.039440 -0.052107 0.510921 
-0.039423 -0.052077 0.510909 
-0.039389 -0.052057 0.510899 
-0.039347 -0.052066 0.510897 
-0.039319 -0.052050 0.510889 
-0.039300 -0.052033 0.510882 
-0.039269 -0.052016 0.510873 
-0.039242 -0.052023 0.510872 
-0.039229 -0.052040 0.510876 
-0.039217 -0.052062 0.510882 
-0.039170 -0.052096 0.510888 
-0.039153 -0.052127 0.510896 
-0.039149 -0.052158 0.510905 
-0.060688 0.060876 0.484789 
-0.058573 0.060765 0.484651 
-0.057231 0.059877 0.484388 
-0.056840 0.057512 0.483851 
-0.058033 0.054941 0.483397 
-0.057518 0.052406 0.482856 
-0.057650 0.050045 0.482417 
-0.059398 0.048164 0.482227 
-0.061709 0.047373 0.482305 
-0.063402 0.047999 0.482581 
-0.065095 0.047010 0.482591 
-0.066420 0.045296 0.482454 
-0.068361 0.044522 0.482559 
-0.070562 0.045647 0.483029 
-0.072027 0.048296 0.483668 
-0.072322 0.050628 0.484094 
-0.074427 0.051112 0.484492 
-0.076159 0.052051 0.484934 
-0.077063 0.054166 0.485436 
-0.075207 0.056699 0.485530 
-0.074122 0.058434 0.485647 
-0.073211 0.060461 0.485854 
-0.073066 0.062118 0.486111 
-0.072202 0.064214 0.486358 
-0.070648 0.065054 0.486334 
-0.069149 0.064416 0.486078 
-0.067712 0.064083 0.485894 
-0.064153 0.064410 0.485710 
-0.061514 0.064809 0.485662 
-0.060692 0.062506 0.485132 
-0.056991 0.063636 0.487757 
-0.054523 0.062843 0.487502 
-0.051382 0.062013 0.487210 
-0.051555 0.058078 0.486175 
-0.053069 0.054120 0.485319 
-0.051767 0.049949 0.484322 
-0.053083 0.046832 0.483808 
-0.055735 0.044028 0.483526 
-0.058781 0.042063 0.483473 
-0.061327 0.042654 0.483828 
-0.064192 0.041627 0.483964 
-0.066282 0.038861 0.483755 
-0.069203 0.038438 0.484057 
-0.072359 0.040519 0.484850 
-0.075316 0.043344 0.485809 
-0.075915 0.046994 0.486525 
-0.078901 0.048020 0.487293 
-0.082755 0.049025 0.488385 
-0.082849 0.052840 0.489034 
-0.079984 0.056832 0.488965 
-0.078208 0.059534 0.489018 
-0.076509 0.062501 0.489176 
-0.076497 0.065201 0.489605 
-0.075056 0.068283 0.489876 
-0.072921 0.070058 0.489905 
-0.070565 0.069062 0.489513 
-0.068279 0.068420 0.489227 
-0.062690 0.068963 0.489114 
-0.058783 0.069095 0.489130 
-0.056452 0.066877 0.488575 
-0.052409 0.067742 0.488364 
-0.047315 0.067370 0.488341 
-0.044103 0.065220 0.487611 
-0.043880 0.059485 0.485721 
-0.046465 0.053488 0.484257 
-0.045396 0.047546 0.482828 
-0.046387 0.042420 0.481929 
-0.051080 0.038890 0.481766 
-0.055152 0.035376 0.481591 
-0.059185 0.036826 0.482215 
-0.063501 0.036328 0.482588 
-0.066424 0.030298 0.481978 
-0.070599 0.031083 0.482615 
-0.076114 0.031691 0.483537 
-0.079751 0.037571 0.485237 
-0.080458 0.043107 0.486343 
-0.085043 0.044422 0.487751 
-0.088718 0.046669 0.489316 
-0.091412 0.051376 0.491133 
-0.087903 0.057548 0.490799 
-0.083297 0.061245 0.489967 
-0.082347 0.066445 0.490485 
-0.081703 0.070077 0.490839 
-0.079416 0.074514 0.490973 
-0.075910 0.076401 0.490717 
-0.072672 0.075361 0.490258 
-0.069628 0.076103 0.490204 
-0.060955 0.076025 0.490252 
-0.055562 0.075105 0.490359 
-0.052213 0.071859 0.489621 
-0.048124 0.072466 0.484995 
-0.043182 0.070803 0.484559 
-0.038892 0.068278 0.483610 
-0.036570 0.061476 0.481099 
-0.039249 0.053320 0.479095 
-0.038940 0.045514 0.477426 
-0.039902 0.038435 0.476324 
-0.045824 0.033215 0.476112 
-0.052860 0.031033 0.476458 
-0.057483 0.031779 0.477008 
-0.062799 0.028976 0.477118 
-0.066865 0.025756 0.477062 
-0.072636 0.022621 0.477230 
-0.079377 0.025423 0.478598 
-0.084004 0.033059 0.480786 
-0.085015 0.040063 0.482244 
-0.092703 0.040655 0.484567 
-0.098783 0.043295 0.487476 
-0.098426 0.050829 0.488640 
-0.094212 0.058661 0.488103 
-0.089855 0.063863 0.487338 
-0.086858 0.069809 0.487277 
-0.087095 0.075340 0.488012 
-0.083591 0.080516 0.487780 
-0.079802 0.084449 0.487544 
-0.075283 0.082557 0.486880 
-0.071282 0.083707 0.486809 
-0.059943 0.082593 0.486944 
-0.051903 0.083283 0.487999 
-0.048176 0.077630 0.486681 
-0.047433 0.074721 0.477809 
-0.039766 0.074380 0.477702 
-0.034013 0.071733 0.476610 
-0.033696 0.063110 0.473842 
-0.036684 0.053949 0.471939 
-0.035355 0.044825 0.470121 
-0.038911 0.038282 0.469467 
-0.042357 0.029605 0.468558 
-0.050857 0.027148 0.469000 
-0.057174 0.030230 0.470024 
-0.063015 0.027058 0.470124 
-0.067523 0.021909 0.469824 
-0.074314 0.017682 0.469893 
-0.081730 0.022240 0.471479 
-0.087535 0.030197 0.473766 
-0.088422 0.038614 0.475389 
-0.096694 0.039683 0.477670 
-0.101179 0.043709 0.479862 
-0.101959 0.051433 0.481441 
-0.099935 0.060135 0.482029 
-0.093300 0.065790 0.480764 
-0.091612 0.073559 0.481336 
-0.089303 0.077793 0.481302 
-0.086601 0.084916 0.481522 
-0.081771 0.088302 0.481092 
-0.077597 0.088607 0.480675 
-0.072531 0.088015 0.480289 
-0.059522 0.088407 0.480485 
-0.050994 0.087518 0.481032 
-0.046113 0.081939 0.479940 
-0.048185 0.077704 0.461406 
-0.042097 0.076247 0.460766 
-0.037217 0.073340 0.459828 
-0.035228 0.065306 0.458052 
-0.036138 0.055878 0.456481 
-0.035829 0.046554 0.455008 
-0.038817 0.039373 0.454262 
-0.045075 0.033172 0.453972 
-0.051737 0.028316 0.453905 
-0.058273 0.031538 0.454939 
-0.064454 0.029442 0.455198 
-0.068942 0.021860 0.454531 
-0.075915 0.018811 0.454705 
-0.083847 0.022883 0.456030 
-0.089619 0.031610 0.458041 
-0.090463 0.040295 0.459535 
-0.098226 0.041924 0.460950 
-0.104415 0.045367 0.462627 
-0.107045 0.053227 0.464406 
-0.101164 0.062451 0.464627 
-0.096011 0.068460 0.464595 
-0.092175 0.075191 0.464932 
-0.092150 0.081332 0.465745 
-0.089045 0.088572 0.466224 
-0.084392 0.093096 0.466194 
-0.078752 0.089902 0.465234 
-0.073960 0.090112 0.464850 
-0.060624 0.092459 0.464428 
-0.051938 0.091166 0.464022 
-0.046660 0.085589 0.462871 
-0.050825 0.079057 0.444447 
-0.044415 0.078121 0.443748 
-0.039710 0.075273 0.442906 
-0.035248 0.067894 0.441386 
-0.040244 0.058404 0.440454 
-0.038460 0.049241 0.438979 
-0.042068 0.042795 0.438405 
-0.046511 0.035361 0.437778 
-0.054772 0.033396 0.438206 
-0.059841 0.033946 0.438683 
-0.065850 0.030710 0.438670 
-0.070477 0.027337 0.438492 
-0.077288 0.022438 0.438150 
-0.084334 0.028086 0.439381 
-0.089844 0.035824 0.441112 
-0.092803 0.041956 0.442473 
-0.098650 0.044878 0.443549 
-0.104648 0.048166 0.444789 
-0.106784 0.055828 0.446397 
-0.102240 0.064731 0.447371 
-0.096299 0.070357 0.447638 
-0.093098 0.077107 0.448338 
-0.092570 0.082607 0.449089 
-0.089783 0.089667 0.449775 
-0.085536 0.094333 0.449933 
-0.080492 0.092634 0.449172 
-0.075333 0.091174 0.448441 
-0.062781 0.092385 0.447374 
-0.054538 0.091601 0.446559 
-0.050354 0.085421 0.445332 
-0.054485 0.078811 0.430515 
-0.047908 0.078584 0.429809 
-0.043608 0.075968 0.429039 
-0.040920 0.068967 0.427823 
-0.045599 0.060720 0.427106 
-0.045592 0.053414 0.426061 
-0.045321 0.046031 0.424991 
-0.050397 0.040181 0.424593 
-0.057160 0.037355 0.424678 
-0.062423 0.039316 0.425275 
-0.067835 0.037387 0.425238 
-0.071789 0.033189 0.424673 
-0.077767 0.029485 0.424069 
-0.084527 0.033006 0.424727 
-0.089681 0.039867 0.426423 
-0.091381 0.046323 0.428060 
-0.097746 0.048159 0.428884 
-0.101861 0.051702 0.430056 
-0.103713 0.058416 0.431768 
-0.100519 0.066355 0.433186 
-0.095558 0.071622 0.433801 
-0.091953 0.077409 0.434522 
-0.091441 0.082269 0.435289 
-0.087759 0.086752 0.435579 
-0.084862 0.091697 0.435917 
-0.080819 0.091107 0.435323 
-0.075990 0.088651 0.434377 
-0.065256 0.090039 0.433177 
-0.058244 0.089077 0.432239 
-0.054474 0.083954 0.431186 
-0.058978 0.076967 0.420500 
-0.053381 0.077005 0.419834 
-0.049508 0.075053 0.419146 
-0.048329 0.069119 0.418212 
-0.051847 0.062641 0.417627 
-0.051340 0.056669 0.416672 
-0.052493 0.051596 0.415991 
-0.056509 0.047330 0.415616 
-0.060856 0.043828 0.415292 
-0.064797 0.044614 0.415593 
-0.069469 0.043900 0.415601 
-0.072677 0.039737 0.414772 
-0.077294 0.038603 0.414428 
-0.082464 0.041379 0.415004 
-0.086631 0.046469 0.416444 
-0.087926 0.051589 0.417973 
-0.091958 0.053606 0.418723 
-0.097085 0.055470 0.419537 
-0.098604 0.060876 0.421225 
-0.094402 0.067135 0.422606 
-0.091518 0.071414 0.423403 
-0.089357 0.076465 0.424304 
-0.088629 0.080173 0.424965 
-0.086426 0.084832 0.425520 
-0.082814 0.086616 0.425285 
-0.079965 0.086864 0.424887 
-0.076039 0.084587 0.423961 
-0.067768 0.084990 0.422749 
-0.061514 0.086168 0.421983 
-0.058446 0.081715 0.421049 
-0.062394 0.075278 0.414344 
-0.058589 0.074893 0.413775 
-0.057079 0.072765 0.413276 
-0.054671 0.068918 0.412419 
-0.056725 0.063952 0.411859 
-0.057130 0.059562 0.411160 
-0.057939 0.055730 0.410564 
-0.060465 0.051976 0.410065 
-0.064617 0.050593 0.410021 
-0.067513 0.051334 0.410303 
-0.070644 0.049455 0.409980 
-0.073132 0.046731 0.409343 
-0.076668 0.045601 0.408997 
-0.080257 0.048568 0.409800 
-0.083533 0.052068 0.410896 
-0.084352 0.056069 0.412180 
-0.088045 0.057189 0.412672 
-0.092259 0.058573 0.413303 
-0.092118 0.062999 0.414757 
-0.089570 0.067592 0.415966 
-0.087121 0.070698 0.416598 
-0.085195 0.074179 0.417261 
-0.084870 0.077016 0.417874 
-0.083200 0.080320 0.418336 
-0.080587 0.081644 0.418182 
-0.078548 0.081941 0.417903 
-0.075716 0.080550 0.417206 
-0.069328 0.081736 0.416329 
-0.064726 0.081880 0.415601 
-0.062530 0.078348 0.414803 
-0.067075 0.071740 0.411245 
-0.065344 0.071210 0.410914 
-0.063856 0.070330 0.410561 
-0.062880 0.067968 0.410017 
-0.064054 0.065165 0.409628 
-0.064155 0.062643 0.409142 
-0.063885 0.059971 0.408578 
-0.065984 0.058250 0.408386 
-0.068458 0.057617 0.408419 
-0.070054 0.057931 0.408599 
-0.071951 0.057640 0.408646 
-0.073264 0.055179 0.408076 
-0.075320 0.054422 0.407940 
-0.077509 0.055952 0.408451 
-0.078872 0.058834 0.409357 
-0.079607 0.060786 0.409971 
-0.081355 0.061630 0.410332 
-0.083967 0.062291 0.410700 
-0.083675 0.064799 0.411447 
-0.083120 0.067380 0.412152 
-0.081436 0.069130 0.412464 
-0.080254 0.071085 0.412836 
-0.080106 0.072748 0.413226 
-0.079342 0.074952 0.413636 
-0.077563 0.075340 0.413465 
-0.076193 0.074981 0.413188 
-0.074862 0.075238 0.413042 
-0.071061 0.075411 0.412498 
-0.068692 0.074945 0.412054 
-0.067451 0.073146 0.411553 
-0.073264 0.066113 0.410866 
-0.073304 0.066116 0.410871 
-0.073328 0.066134 0.410877 
-0.073337 0.066179 0.410889 
-0.073321 0.066228 0.410899 
-0.073327 0.066277 0.410911 
-0.073324 0.066322 0.410921 
-0.073291 0.066358 0.410926 
-0.073247 0.066372 0.410925 
-0.073216 0.066364 0.410920 
-0.073182 0.066377 0.410919 
-0.073157 0.066414 0.410925 
-0.073123 0.066408 0.410920 
-0.073080 0.066397 0.410912 
-0.073050 0.066349 0.410898 
-0.073041 0.066307 0.410887 
-0.073007 0.066293 0.410881 
-0.072956 0.066282 0.410872 
-0.072966 0.066234 0.410862 
-0.072982 0.066189 0.410853 
-0.073010 0.066157 0.410849 
-0.073031 0.066123 0.410843 
-0.073032 0.066091 0.410836 
-0.073051 0.066058 0.410830 
-0.073075 0.066036 0.410828 
-0.073103 0.066048 0.410833 
-0.073127 0.066041 0.410834 
-0.073196 0.066047 0.410843 
-0.073242 0.066046 0.410848 
-0.073272 0.066071 0.410857 
-0.037227 -0.011064 0.467577 
-0.035801 -0.010393 0.467481 
-0.034335 -0.010137 0.467394 
-0.032726 -0.011577 0.467340 
-0.032041 -0.013986 0.467397 
-0.030291 -0.015474 0.467370 
-0.029744 -0.017226 0.467445 
-0.029333 -0.019383 0.467574 
-0.030715 -0.021040 0.467792 
-0.032002 -0.021595 0.467921 
-0.032736 -0.023005 0.468097 
-0.032352 -0.025197 0.468283 
-0.033789 -0.025817 0.468452 
-0.035691 -0.026241 0.468648 
-0.037916 -0.025967 0.468807 
-0.039435 -0.024775 0.468804 
-0.040980 -0.025090 0.468989 
-0.042784 -0.025662 0.469252 
-0.044568 -0.024725 0.469321 
-0.044709 -0.022059 0.468977 
-0.044506 -0.020178 0.468728 
-0.044924 -0.018455 0.468572 
-0.046191 -0.017316 0.468555 
-0.046066 -0.015676 0.468380 
-0.045795 -0.014289 0.468238 
-0.044665 -0.013845 0.468131 
-0.043787 -0.013124 0.468028 
-0.041772 -0.010599 0.467791 
-0.039956 -0.009714 0.467676 
-0.038205 -0.010132 0.467601 
-0.036556 -0.006771 0.469582 
-0.034290 -0.005704 0.469484 
-0.032115 -0.005609 0.469350 
-0.029255 -0.007413 0.469116 
-0.028043 -0.011249 0.469070 
-0.026163 -0.013993 0.469044 
-0.024701 -0.016590 0.469093 
-0.025259 -0.019819 0.469355 
-0.025919 -0.022778 0.469637 
-0.027605 -0.023925 0.469842 
-0.029600 -0.025623 0.470133 
-0.029526 -0.028391 0.470409 
-0.030750 -0.030878 0.470776 
-0.034074 -0.031088 0.471098 
-0.037653 -0.030609 0.471415 
-0.040161 -0.029080 0.471500 
-0.042653 -0.029404 0.471877 
-0.045807 -0.030669 0.472590 
-0.047312 -0.027500 0.472260 
-0.049134 -0.024665 0.472038 
-0.048544 -0.021402 0.471415 
-0.049467 -0.018573 0.471111 
-0.050315 -0.016753 0.470954 
-0.050629 -0.014105 0.470658 
-0.050341 -0.011832 0.470405 
-0.048680 -0.011016 0.470240 
-0.046648 -0.010352 0.470094 
-0.043486 -0.006647 0.469867 
-0.040790 -0.005103 0.469798 
-0.038108 -0.005062 0.469697 
-0.035811 -0.001626 0.469366 
-0.032854 -0.001233 0.469222 
-0.028944 0.000750 0.469064 
-0.025183 -0.002704 0.468461 
-0.023162 -0.008142 0.468234 
-0.019640 -0.011989 0.468091 
-0.017642 -0.016027 0.468219 
-0.017651 -0.021088 0.468644 
-0.020695 -0.024977 0.469165 
-0.022903 -0.026734 0.469453 
-0.025048 -0.029881 0.469892 
-0.024654 -0.034476 0.470354 
-0.027781 -0.036225 0.470773 
-0.031733 -0.038857 0.471463 
-0.037427 -0.036810 0.471893 
-0.041078 -0.034219 0.472028 
-0.044603 -0.034454 0.472678 
-0.049133 -0.036268 0.474066 
-0.053066 -0.033572 0.474414 
-0.053079 -0.027146 0.472827 
-0.053090 -0.023013 0.471949 
-0.053920 -0.018927 0.471306 
-0.056954 -0.016244 0.471224 
-0.057621 -0.012121 0.470590 
-0.056411 -0.008959 0.470062 
-0.054670 -0.007270 0.469813 
-0.051279 -0.006409 0.469664 
-0.046311 -0.000859 0.469621 
-0.042133 0.001253 0.469783 
-0.038096 0.000118 0.469605 
-0.035402 0.001778 0.465590 
-0.030981 0.004610 0.465560 
-0.026060 0.006407 0.465215 
-0.022148 0.000583 0.464330 
-0.018138 -0.005214 0.463941 
-0.014758 -0.010804 0.463980 
-0.012479 -0.015953 0.464272 
-0.011019 -0.022554 0.464848 
-0.015215 -0.027665 0.465558 
-0.017632 -0.030282 0.465934 
-0.020939 -0.034177 0.466495 
-0.020341 -0.040355 0.467120 
-0.024366 -0.042928 0.467636 
-0.030170 -0.044843 0.468342 
-0.037397 -0.041667 0.468793 
-0.042158 -0.039919 0.469257 
-0.046806 -0.040183 0.470204 
-0.052524 -0.042108 0.472115 
-0.056726 -0.037658 0.472122 
-0.059837 -0.031615 0.471262 
-0.057489 -0.024886 0.469026 
-0.059291 -0.019698 0.468207 
-0.061193 -0.016313 0.467779 
-0.063005 -0.011012 0.466940 
-0.062020 -0.006750 0.466148 
-0.059440 -0.004777 0.465814 
-0.056514 -0.002476 0.465598 
-0.049322 0.004523 0.465774 
-0.043543 0.006701 0.466206 
-0.038220 0.006817 0.466242 
-0.035117 0.004725 0.459354 
-0.030119 0.007357 0.459191 
-0.024624 0.009095 0.458717 
-0.019501 0.003289 0.457900 
-0.015557 -0.004025 0.457773 
-0.011150 -0.010209 0.457939 
-0.008938 -0.016228 0.458411 
-0.007932 -0.023679 0.459145 
-0.011184 -0.030004 0.459940 
-0.016252 -0.031813 0.460335 
-0.018452 -0.037267 0.461000 
-0.018743 -0.043196 0.461639 
-0.022073 -0.048003 0.462313 
-0.029206 -0.049387 0.462949 
-0.037476 -0.046263 0.463413 
-0.042770 -0.042721 0.463598 
-0.048448 -0.044501 0.464855 
-0.054132 -0.045110 0.466227 
-0.060524 -0.042076 0.467111 
-0.061192 -0.033011 0.464947 
-0.060427 -0.026481 0.463342 
-0.062737 -0.020571 0.462479 
-0.065640 -0.016603 0.462053 
-0.066112 -0.010806 0.460987 
-0.065624 -0.005745 0.460094 
-0.061464 -0.004285 0.459782 
-0.058766 -0.001408 0.459467 
-0.050510 0.005666 0.459406 
-0.044789 0.010436 0.459867 
-0.038480 0.009205 0.459812 
-0.035619 0.003515 0.445132 
-0.030374 0.006780 0.444744 
-0.025429 0.007103 0.444418 
-0.018657 0.003458 0.444129 
-0.016066 -0.005413 0.444677 
-0.012054 -0.011706 0.445073 
-0.005951 -0.017291 0.445394 
-0.006692 -0.025317 0.446273 
-0.011293 -0.031522 0.447098 
-0.014716 -0.034366 0.447520 
-0.019803 -0.037868 0.448068 
-0.017878 -0.046261 0.448860 
-0.022051 -0.050373 0.449421 
-0.029517 -0.051646 0.449872 
-0.037946 -0.049916 0.450220 
-0.043595 -0.045947 0.450216 
-0.049030 -0.046264 0.450753 
-0.055664 -0.048507 0.451821 
-0.060679 -0.043387 0.451663 
-0.063007 -0.035389 0.450669 
-0.063625 -0.028906 0.449740 
-0.064858 -0.022138 0.448854 
-0.067419 -0.017936 0.448441 
-0.069960 -0.011230 0.447635 
-0.067558 -0.006444 0.446857 
-0.063296 -0.004846 0.446508 
-0.060458 -0.001811 0.446097 
-0.051249 0.004584 0.445431 
-0.045416 0.009172 0.445156 
-0.039043 0.008206 0.445074 
-0.036363 0.000656 0.430728 
-0.031305 0.004076 0.430196 
-0.026180 0.005178 0.429875 
-0.020367 0.000598 0.430053 
-0.017389 -0.007408 0.430726 
-0.014045 -0.013646 0.431229 
-0.010333 -0.019103 0.431653 
-0.010571 -0.026260 0.432409 
-0.012391 -0.032772 0.433138 
-0.016589 -0.035084 0.433481 
-0.020923 -0.038872 0.433948 
-0.020171 -0.045670 0.434521 
-0.024168 -0.049253 0.434860 
-0.030131 -0.053379 0.435245 
-0.038631 -0.049195 0.435340 
-0.043885 -0.046118 0.435425 
-0.049763 -0.048566 0.435982 
-0.055736 -0.049568 0.436518 
-0.061146 -0.045058 0.436536 
-0.061709 -0.035830 0.435687 
-0.061180 -0.029382 0.435021 
-0.062653 -0.023419 0.434494 
-0.064762 -0.019672 0.434204 
-0.067488 -0.013618 0.433653 
-0.066496 -0.008769 0.433027 
-0.063379 -0.006687 0.432636 
-0.058488 -0.005516 0.432283 
-0.051319 0.002012 0.431143 
-0.045467 0.005295 0.430601 
-0.039601 0.005562 0.430374 
-0.037117 -0.002620 0.419022 
-0.033132 -0.001506 0.418719 
-0.028283 0.000534 0.418293 
-0.023285 -0.003561 0.418541 
-0.020614 -0.010461 0.419164 
-0.016554 -0.015553 0.419524 
-0.014492 -0.020687 0.419964 
-0.013718 -0.027095 0.420568 
-0.017526 -0.032145 0.421117 
-0.019624 -0.034876 0.421376 
-0.023416 -0.038324 0.421670 
-0.022142 -0.045165 0.422011 
-0.025575 -0.048993 0.422086 
-0.032018 -0.050112 0.422123 
-0.039183 -0.048638 0.422420 
-0.043927 -0.045040 0.422705 
-0.048797 -0.046159 0.423076 
-0.054250 -0.047630 0.423564 
-0.057913 -0.042411 0.423711 
-0.061064 -0.036372 0.423665 
-0.059325 -0.029751 0.423152 
-0.060419 -0.024396 0.422822 
-0.062967 -0.021039 0.422686 
-0.065778 -0.015499 0.422273 
-0.063614 -0.011711 0.421678 
-0.060326 -0.010268 0.421287 
-0.057375 -0.008289 0.420840 
-0.050042 -0.003033 0.419701 
-0.045482 0.001473 0.418883 
-0.040085 0.000510 0.418774 
-0.038105 -0.007845 0.410981 
-0.034552 -0.005814 0.410525 
-0.031244 -0.005688 0.410344 
-0.027308 -0.008795 0.410512 
-0.024518 -0.013692 0.410898 
-0.020795 -0.017708 0.411120 
-0.018765 -0.021957 0.411428 
-0.018315 -0.027351 0.411864 
-0.022315 -0.031265 0.412231 
-0.024652 -0.033082 0.412383 
-0.026516 -0.036713 0.412543 
-0.026827 -0.040754 0.412581 
-0.029256 -0.043936 0.412543 
-0.034095 -0.045059 0.412607 
-0.039728 -0.042982 0.413023 
-0.043477 -0.041292 0.413378 
-0.047421 -0.042352 0.413689 
-0.051360 -0.042754 0.414067 
-0.054720 -0.039330 0.414483 
-0.056724 -0.034149 0.414666 
-0.057013 -0.029586 0.414574 
-0.058296 -0.025012 0.414459 
-0.059028 -0.022212 0.414321 
-0.061010 -0.017849 0.414074 
-0.060160 -0.014477 0.413586 
-0.057548 -0.013218 0.413189 
-0.054916 -0.011703 0.412747 
-0.048960 -0.007101 0.411584 
-0.044871 -0.004163 0.410869 
-0.040460 -0.005961 0.410870 
-0.038903 -0.012155 0.406186 
-0.036381 -0.011250 0.405885 
-0.033624 -0.010537 0.405610 
-0.030545 -0.012855 0.405680 
-0.028996 -0.016994 0.406002 
-0.026046 -0.019860 0.406079 
-0.024253 -0.022990 0.406228 
-0.025028 -0.026890 0.406510 
-0.027070 -0.029963 0.406732 
-0.029118 -0.031138 0.406858 
-0.030699 -0.033570 0.406959 
-0.030561 -0.036896 0.406906 
-0.031825 -0.040177 0.406812 
-0.035823 -0.040371 0.406990 
-0.040066 -0.039911 0.407327 
-0.042839 -0.036687 0.407765 
-0.046097 -0.038584 0.407994 
-0.049416 -0.039328 0.408319 
-0.052408 -0.036934 0.408796 
-0.052633 -0.031797 0.408941 
-0.052806 -0.028470 0.408930 
-0.054125 -0.025180 0.408963 
-0.055261 -0.023037 0.408968 
-0.056591 -0.019705 0.408841 
-0.054983 -0.017555 0.408430 
-0.053731 -0.016268 0.408135 
-0.051543 -0.015268 0.407770 
-0.047362 -0.011313 0.406789 
-0.044121 -0.009202 0.406189 
-0.040714 -0.009853 0.406019 
-0.039818 -0.017698 0.404225 
-0.038428 -0.017291 0.404053 
-0.036771 -0.016681 0.403842 
-0.035205 -0.018266 0.403858 
-0.034341 -0.020559 0.403975 
-0.032505 -0.022089 0.403935 
-0.031301 -0.023845 0.403951 
-0.032006 -0.026043 0.404107 
-0.032440 -0.028048 0.404202 
-0.034045 -0.028552 0.404332 
-0.035244 -0.029698 0.404441 
-0.034667 -0.032150 0.404387 
-0.035687 -0.033645 0.404431 
-0.038088 -0.033417 0.404634 
-0.040470 -0.032877 0.404871 
-0.042100 -0.031878 0.405061 
-0.043833 -0.032393 0.405235 
-0.045878 -0.033115 0.405444 
-0.047080 -0.031179 0.405633 
-0.048043 -0.029025 0.405761 
-0.048075 -0.027020 0.405737 
-0.047861 -0.025007 0.405645 
-0.049061 -0.023833 0.405735 
-0.049697 -0.021973 0.405696 
-0.048991 -0.020668 0.405508 
-0.047696 -0.020274 0.405320 
-0.046721 -0.019591 0.405144 
-0.044540 -0.017214 0.404660 
-0.042783 -0.015808 0.404317 
-0.040837 -0.016488 0.404199 
-0.040832 -0.024688 0.404865 
-0.040861 -0.024707 0.404869 
-0.040886 -0.024704 0.404871 
-0.040921 -0.024684 0.404874 
-0.040933 -0.024637 0.404873 
-0.040959 -0.024606 0.404874 
-0.040992 -0.024576 0.404877 
-0.040978 -0.024536 0.404873 
-0.040958 -0.024504 0.404870 
-0.040942 -0.024489 0.404867 
-0.040918 -0.024470 0.404864 
-0.040919 -0.024437 0.404862 
-0.040901 -0.024413 0.404859 
-0.040866 -0.024400 0.404855 
-0.040821 -0.024409 0.404851 
-0.040791 -0.024434 0.404849 
-0.040759 -0.024423 0.404845 
-0.040725 -0.024414 0.404841 
-0.040701 -0.024445 0.404840 
-0.040684 -0.024484 0.404840 
-0.040685 -0.024520 0.404842 
-0.040681 -0.024555 0.404843 
-0.040663 -0.024577 0.404842 
-0.040649 -0.024612 0.404843 
-0.040659 -0.024639 0.404845 
-0.040682 -0.024648 0.404848 
-0.040709 -0.024654 0.404851 
-0.040748 -0.024699 0.404857 
-0.040780 -0.024719 0.404861 
-0.040814 -0.024713 0.404864 
