-0.108399 -0.121141 0.441882 
-0.110268 -0.122165 0.442226 
-0.110752 -0.123242 0.442476 
-0.109851 -0.125604 0.442902 
-0.109968 -0.128355 0.443524 
-0.112685 -0.129492 0.443947 
-0.115248 -0.129431 0.444089 
-0.115999 -0.127536 0.443736 
-0.117337 -0.125874 0.443509 
-0.118242 -0.126387 0.443681 
-0.120594 -0.128051 0.444192 
-0.122947 -0.127795 0.444347 
-0.124198 -0.126150 0.444186 
-0.124653 -0.124681 0.443998 
-0.123593 -0.123003 0.443615 
-0.123521 -0.121034 0.443301 
-0.125694 -0.120062 0.443436 
-0.125412 -0.118070 0.443113 
-0.129781 -0.113534 0.445431 
-0.129131 -0.111707 0.445066 
-0.127250 -0.110898 0.444588 
-0.123517 -0.111048 0.443959 
-0.121556 -0.113045 0.443963 
-0.119024 -0.112069 0.443463 
-0.117296 -0.107224 0.442461 
-0.113968 -0.106176 0.441890 
-0.109473 -0.107565 0.441652 
-0.107523 -0.110408 0.441947 
-0.107780 -0.112557 0.442338 
-0.106666 -0.113922 0.442481 
-0.103023 -0.113782 0.442157 
-0.100227 -0.116025 0.442359 
-0.101461 -0.118766 0.442991 
-0.103225 -0.121185 0.443619 
-0.105989 -0.122837 0.444165 
-0.106710 -0.124576 0.444600 
-0.105234 -0.128359 0.445435 
-0.106488 -0.131604 0.446382 
-0.109787 -0.134568 0.447370 
-0.114172 -0.133362 0.447173 
-0.115179 -0.131249 0.446679 
-0.117289 -0.128356 0.446150 
-0.118745 -0.129557 0.446509 
-0.122631 -0.132498 0.447397 
-0.126305 -0.131868 0.447529 
-0.128191 -0.129139 0.447233 
-0.128539 -0.126600 0.446892 
-0.126736 -0.123952 0.446289 
-0.127344 -0.121031 0.445965 
-0.130218 -0.119470 0.446226 
-0.130497 -0.116154 0.445889 
-0.137625 -0.109345 0.446431 
-0.135949 -0.106855 0.445656 
-0.132157 -0.106430 0.444593 
-0.126502 -0.106902 0.443444 
-0.123684 -0.109769 0.443387 
-0.120185 -0.107519 0.442502 
-0.117451 -0.101555 0.441142 
-0.112590 -0.099766 0.440280 
-0.104818 -0.099796 0.439573 
-0.102939 -0.105718 0.440383 
-0.103890 -0.109380 0.441072 
-0.101048 -0.110562 0.441045 
-0.096185 -0.110694 0.440696 
-0.092477 -0.114151 0.441046 
-0.093835 -0.118118 0.441924 
-0.096993 -0.121683 0.442913 
-0.100863 -0.124112 0.443723 
-0.102160 -0.126551 0.444396 
-0.100023 -0.131967 0.445825 
-0.100255 -0.138221 0.448053 
-0.105886 -0.142125 0.449628 
-0.112685 -0.140133 0.448794 
-0.114229 -0.136960 0.447777 
-0.117462 -0.133109 0.446837 
-0.119692 -0.134635 0.447317 
-0.125331 -0.138409 0.448456 
-0.130581 -0.137266 0.448404 
-0.133568 -0.133496 0.447970 
-0.135193 -0.130366 0.447740 
-0.132378 -0.126194 0.446922 
-0.132807 -0.121521 0.446483 
-0.137399 -0.119091 0.447170 
-0.135766 -0.114576 0.446436 
-0.143652 -0.106816 0.443546 
-0.140704 -0.104221 0.442293 
-0.136427 -0.103321 0.440951 
-0.129261 -0.103950 0.439462 
-0.125586 -0.107744 0.439429 
-0.121565 -0.103553 0.438161 
-0.117839 -0.096474 0.436483 
-0.111003 -0.091868 0.435045 
-0.102275 -0.095686 0.434990 
-0.100098 -0.103091 0.436000 
-0.100048 -0.106557 0.436554 
-0.095942 -0.107874 0.436462 
-0.090224 -0.108402 0.436134 
-0.084647 -0.112703 0.436453 
-0.084654 -0.117818 0.437393 
-0.091637 -0.122651 0.438901 
-0.096871 -0.125690 0.439936 
-0.097972 -0.128989 0.440814 
-0.094431 -0.136507 0.442921 
-0.096424 -0.143112 0.445524 
-0.102837 -0.149061 0.448100 
-0.111720 -0.146201 0.446609 
-0.113864 -0.141212 0.444870 
-0.117826 -0.137017 0.443780 
-0.120733 -0.139466 0.444502 
-0.128002 -0.144260 0.445872 
-0.135721 -0.143961 0.445851 
-0.139510 -0.138660 0.445090 
-0.140560 -0.133855 0.444644 
-0.138077 -0.128944 0.443943 
-0.137153 -0.122472 0.443242 
-0.143567 -0.119381 0.444304 
-0.142487 -0.113172 0.443720 
-0.147908 -0.105799 0.437449 
-0.144497 -0.102832 0.436087 
-0.139561 -0.101817 0.434694 
-0.131949 -0.101687 0.433182 
-0.127513 -0.106273 0.433251 
-0.122461 -0.102494 0.431988 
-0.118315 -0.094186 0.430139 
-0.110982 -0.090843 0.428972 
-0.099706 -0.091614 0.428293 
-0.096367 -0.099719 0.429309 
-0.096968 -0.104566 0.430106 
-0.094029 -0.107358 0.430336 
-0.087643 -0.107917 0.429971 
-0.081673 -0.112751 0.430322 
-0.081512 -0.118395 0.431276 
-0.086438 -0.123965 0.432713 
-0.094474 -0.127272 0.433962 
-0.094164 -0.131682 0.434964 
-0.092518 -0.139062 0.436925 
-0.092532 -0.148654 0.440391 
-0.101504 -0.153582 0.442370 
-0.110928 -0.152712 0.441847 
-0.113500 -0.146771 0.439837 
-0.118322 -0.140441 0.438239 
-0.121588 -0.142761 0.438909 
-0.129821 -0.148228 0.440407 
-0.138141 -0.147364 0.440298 
-0.143801 -0.142663 0.439653 
-0.143289 -0.136109 0.438886 
-0.139592 -0.130343 0.437973 
-0.140282 -0.123683 0.437414 
-0.147190 -0.120248 0.438318 
-0.145184 -0.113514 0.437468 
-0.148687 -0.108297 0.422147 
-0.146347 -0.104551 0.421256 
-0.141582 -0.103097 0.420360 
-0.133252 -0.103316 0.419404 
-0.128459 -0.108344 0.419710 
-0.123631 -0.103558 0.418512 
-0.119274 -0.093905 0.416604 
-0.111276 -0.090088 0.415421 
-0.100502 -0.093447 0.415195 
-0.097768 -0.102248 0.416338 
-0.098872 -0.107426 0.417202 
-0.093848 -0.108732 0.417039 
-0.085011 -0.108311 0.416353 
-0.080054 -0.114172 0.416856 
-0.082050 -0.120465 0.417951 
-0.086691 -0.126144 0.419238 
-0.094511 -0.129590 0.420441 
-0.095195 -0.133754 0.421253 
-0.092199 -0.142091 0.422731 
-0.092845 -0.151654 0.425067 
-0.102656 -0.155647 0.426558 
-0.112199 -0.153752 0.426492 
-0.114270 -0.150106 0.425765 
-0.119309 -0.144068 0.424797 
-0.122638 -0.145416 0.425242 
-0.131271 -0.151393 0.426818 
-0.139673 -0.150176 0.426959 
-0.144554 -0.144604 0.426297 
-0.144244 -0.138209 0.425376 
-0.141273 -0.132733 0.424418 
-0.142785 -0.125960 0.423664 
-0.148613 -0.122453 0.423850 
-0.148226 -0.115171 0.422960 
-0.149807 -0.110587 0.406956 
-0.146243 -0.107652 0.406210 
-0.141993 -0.105920 0.405591 
-0.133018 -0.107265 0.405092 
-0.129329 -0.110751 0.405356 
-0.124298 -0.107035 0.404395 
-0.120207 -0.098064 0.402700 
-0.112539 -0.093585 0.401471 
-0.101893 -0.096315 0.401156 
-0.100380 -0.106139 0.402462 
-0.099655 -0.109480 0.402881 
-0.096762 -0.112147 0.403025 
-0.089560 -0.112201 0.402454 
-0.084698 -0.117388 0.402677 
-0.082887 -0.122815 0.403140 
-0.089394 -0.128378 0.404567 
-0.096660 -0.131608 0.405824 
-0.097496 -0.135471 0.406516 
-0.093701 -0.143995 0.407523 
-0.094105 -0.153591 0.409350 
-0.103260 -0.158710 0.411184 
-0.112957 -0.157229 0.411713 
-0.115782 -0.149143 0.410532 
-0.120212 -0.143933 0.410008 
-0.123586 -0.147331 0.410847 
-0.131865 -0.152717 0.412348 
-0.141211 -0.153145 0.412986 
-0.144575 -0.146146 0.412021 
-0.144707 -0.140193 0.411068 
-0.141571 -0.134697 0.410001 
-0.142674 -0.128102 0.409038 
-0.147329 -0.124825 0.408859 
-0.148483 -0.117699 0.407891 
-0.146172 -0.114749 0.394661 
-0.143818 -0.111753 0.394048 
-0.139048 -0.111149 0.393650 
-0.133186 -0.110024 0.393082 
-0.129390 -0.113799 0.393425 
-0.124649 -0.110796 0.392593 
-0.120978 -0.102443 0.391016 
-0.114260 -0.099518 0.390082 
-0.105334 -0.102539 0.389861 
-0.101812 -0.108632 0.390383 
-0.102892 -0.113373 0.391089 
-0.098372 -0.114524 0.390779 
-0.093047 -0.115358 0.390315 
-0.088305 -0.120064 0.390174 
-0.088361 -0.125248 0.390610 
-0.093862 -0.130084 0.392018 
-0.099785 -0.133002 0.393346 
-0.099505 -0.136925 0.393881 
-0.097111 -0.144163 0.394624 
-0.097760 -0.152446 0.396191 
-0.106842 -0.155020 0.397999 
-0.114530 -0.155639 0.399094 
-0.116849 -0.149720 0.398380 
-0.121004 -0.143949 0.397857 
-0.123715 -0.145327 0.398374 
-0.131389 -0.151708 0.400177 
-0.138753 -0.151014 0.400564 
-0.141754 -0.145244 0.399680 
-0.142166 -0.140305 0.398797 
-0.139482 -0.135494 0.397792 
-0.139768 -0.129682 0.396775 
-0.144695 -0.126923 0.396552 
-0.144136 -0.121088 0.395553 
-0.142165 -0.118456 0.385936 
-0.139606 -0.116407 0.385459 
-0.136099 -0.115665 0.385134 
-0.130507 -0.115942 0.384816 
-0.128169 -0.118009 0.384998 
-0.124285 -0.116054 0.384349 
-0.121453 -0.109660 0.383074 
-0.116395 -0.107881 0.382372 
-0.108508 -0.108203 0.381709 
-0.107361 -0.115124 0.382480 
-0.107636 -0.118170 0.382911 
-0.103900 -0.118896 0.382504 
-0.098120 -0.118818 0.381662 
-0.096544 -0.123357 0.381793 
-0.094786 -0.127149 0.381771 
-0.099053 -0.131107 0.383090 
-0.103449 -0.133657 0.384335 
-0.105283 -0.136110 0.385064 
-0.103145 -0.141863 0.385526 
-0.104033 -0.147862 0.386745 
-0.109542 -0.152376 0.388673 
-0.116414 -0.151304 0.389695 
-0.118411 -0.145720 0.389000 
-0.121581 -0.142654 0.388879 
-0.123728 -0.143254 0.389267 
-0.129934 -0.148526 0.390972 
-0.135057 -0.146986 0.391095 
-0.137638 -0.142847 0.390405 
-0.139090 -0.139685 0.389822 
-0.135957 -0.135261 0.388769 
-0.136580 -0.130744 0.387909 
-0.140655 -0.128532 0.387672 
-0.141172 -0.123510 0.386769 
-0.137019 -0.122135 0.380711 
-0.136080 -0.119951 0.380255 
-0.132788 -0.119837 0.380035 
-0.129046 -0.119370 0.379678 
-0.126359 -0.122332 0.379994 
-0.123853 -0.120239 0.379374 
-0.121733 -0.115369 0.378330 
-0.117795 -0.113374 0.377615 
-0.112433 -0.114978 0.377252 
-0.110994 -0.119304 0.377663 
-0.111557 -0.121911 0.378116 
-0.108811 -0.122458 0.377758 
-0.105699 -0.122935 0.377280 
-0.101627 -0.125326 0.376738 
-0.102622 -0.128559 0.377301 
-0.105363 -0.131431 0.378287 
-0.109325 -0.133133 0.379403 
-0.109254 -0.135442 0.379756 
-0.108389 -0.139390 0.380209 
-0.108102 -0.144881 0.381092 
-0.113348 -0.146664 0.382638 
-0.118271 -0.145680 0.383439 
-0.119392 -0.143438 0.383202 
-0.121911 -0.140363 0.383000 
-0.123571 -0.140969 0.383367 
-0.127734 -0.143689 0.384479 
-0.131979 -0.143435 0.384864 
-0.133968 -0.140372 0.384344 
-0.135407 -0.138192 0.383952 
-0.132802 -0.134694 0.383019 
-0.133370 -0.131264 0.382329 
-0.135937 -0.129572 0.382127 
-0.135861 -0.125990 0.381397 
-0.130078 -0.126229 0.378284 
-0.129659 -0.124993 0.378000 
-0.128458 -0.124384 0.377775 
-0.125983 -0.124430 0.377548 
-0.124460 -0.126117 0.377712 
-0.123111 -0.124597 0.377266 
-0.121818 -0.122165 0.376667 
-0.119479 -0.120551 0.376101 
-0.116487 -0.121831 0.375919 
-0.115774 -0.124422 0.376238 
-0.115976 -0.125793 0.376498 
-0.114564 -0.126204 0.376336 
-0.111917 -0.126062 0.375849 
-0.110693 -0.127838 0.375883 
-0.110927 -0.129599 0.376197 
-0.113072 -0.131204 0.376889 
-0.114587 -0.132290 0.377372 
-0.115330 -0.133309 0.377696 
-0.114175 -0.135895 0.377931 
-0.114224 -0.138882 0.378488 
-0.117254 -0.139742 0.379283 
-0.119870 -0.139629 0.379754 
-0.120570 -0.137948 0.379535 
-0.121958 -0.136360 0.379436 
-0.122909 -0.136775 0.379667 
-0.125517 -0.138820 0.380473 
-0.128030 -0.138549 0.380728 
-0.129349 -0.136782 0.380479 
-0.129075 -0.134753 0.380002 
-0.128489 -0.133260 0.379618 
-0.128535 -0.131178 0.379176 
-0.130385 -0.130183 0.379134 
-0.130372 -0.128037 0.378680 
-0.121544 -0.130610 0.378250 
-0.121545 -0.130637 0.378256 
-0.121578 -0.130641 0.378261 
-0.121623 -0.130641 0.378267 
-0.121646 -0.130618 0.378266 
-0.121677 -0.130631 0.378273 
-0.121700 -0.130681 0.378286 
-0.121742 -0.130710 0.378298 
-0.121796 -0.130687 0.378301 
-0.121813 -0.130645 0.378295 
-0.121805 -0.130616 0.378288 
-0.121834 -0.130610 0.378291 
-0.121875 -0.130610 0.378297 
-0.121898 -0.130579 0.378294 
-0.121895 -0.130547 0.378287 
-0.121874 -0.130517 0.378278 
-0.121830 -0.130498 0.378269 
-0.121817 -0.130479 0.378263 
-0.121845 -0.130427 0.378257 
-0.121832 -0.130382 0.378246 
-0.121788 -0.130348 0.378233 
-0.121735 -0.130360 0.378228 
-0.121721 -0.130399 0.378234 
-0.121697 -0.130421 0.378235 
-0.121680 -0.130418 0.378232 
-0.121632 -0.130377 0.378217 
-0.121580 -0.130376 0.378210 
-0.121566 -0.130420 0.378216 
-0.121556 -0.130447 0.378220 
-0.121578 -0.130481 0.378230 
-0.121577 -0.130518 0.378237 
-0.121539 -0.130537 0.378235 
-0.121551 -0.130573 0.378244 
-0.136230 -0.017124 0.385590 
-0.134635 -0.016980 0.385399 
-0.133804 -0.018638 0.384969 
-0.133294 -0.021579 0.384372 
-0.134398 -0.023447 0.384220 
-0.132501 -0.024587 0.383764 
-0.128729 -0.024976 0.383156 
-0.126760 -0.027191 0.382529 
-0.126950 -0.030961 0.382013 
-0.129679 -0.032611 0.382192 
-0.130883 -0.033118 0.382307 
-0.131144 -0.034702 0.382144 
-0.130397 -0.037332 0.381707 
-0.131824 -0.039516 0.381677 
-0.133976 -0.039652 0.382014 
-0.136467 -0.037848 0.382629 
-0.138187 -0.036478 0.383069 
-0.139584 -0.036120 0.383347 
-0.142242 -0.038595 0.383581 
-0.144948 -0.038293 0.384128 
-0.148058 -0.036643 0.384882 
-0.148461 -0.033284 0.385238 
-0.146712 -0.031873 0.385045 
-0.145156 -0.029676 0.385006 
-0.145895 -0.028744 0.385236 
-0.148502 -0.026575 0.385917 
-0.149133 -0.023703 0.386361 
-0.147414 -0.021792 0.386354 
-0.146072 -0.020554 0.386341 
-0.143350 -0.021671 0.385784 
-0.141312 -0.020578 0.385670 
-0.140654 -0.018606 0.385915 
-0.138357 -0.017472 0.385811 
-0.134589 -0.011346 0.389314 
-0.132425 -0.012033 0.388851 
-0.130369 -0.012837 0.388363 
-0.130004 -0.018227 0.387134 
-0.131546 -0.020932 0.386838 
-0.128717 -0.022902 0.386072 
-0.122876 -0.023545 0.385093 
-0.119566 -0.026997 0.384045 
-0.119554 -0.033066 0.383170 
-0.123987 -0.035715 0.383462 
-0.126929 -0.035856 0.383883 
-0.126544 -0.038907 0.383444 
-0.125978 -0.042362 0.382946 
-0.128108 -0.045691 0.382913 
-0.130741 -0.047483 0.383176 
-0.134767 -0.044851 0.384167 
-0.137705 -0.041228 0.385063 
-0.139952 -0.041626 0.385458 
-0.143799 -0.044303 0.386059 
-0.148857 -0.045512 0.387214 
-0.152966 -0.041794 0.388416 
-0.153470 -0.036467 0.388741 
-0.150358 -0.034062 0.388190 
-0.147852 -0.030730 0.387979 
-0.149423 -0.029426 0.388397 
-0.154040 -0.026033 0.389566 
-0.155920 -0.021113 0.390372 
-0.152598 -0.018246 0.390229 
-0.150330 -0.016345 0.390217 
-0.146434 -0.017525 0.389515 
-0.142604 -0.016606 0.389185 
-0.141590 -0.013354 0.389726 
-0.137916 -0.011729 0.389649 
-0.132560 -0.002106 0.391180 
-0.129565 -0.004082 0.390110 
-0.126824 -0.005860 0.389139 
-0.125783 -0.012980 0.387126 
-0.128498 -0.017471 0.386568 
-0.123669 -0.019959 0.385360 
-0.116733 -0.021569 0.384002 
-0.110408 -0.026308 0.382308 
-0.110651 -0.035330 0.381147 
-0.117531 -0.039086 0.381630 
-0.121137 -0.039751 0.382062 
-0.122084 -0.042988 0.381810 
-0.119193 -0.050220 0.380548 
-0.122929 -0.054701 0.380620 
-0.128022 -0.054596 0.381497 
-0.133087 -0.053187 0.382591 
-0.137454 -0.048919 0.383848 
-0.140836 -0.048047 0.384642 
-0.146355 -0.051613 0.385801 
-0.153115 -0.052505 0.387811 
-0.160451 -0.048833 0.390253 
-0.160612 -0.040349 0.390060 
-0.155892 -0.036676 0.388808 
-0.153099 -0.032018 0.388407 
-0.155777 -0.030038 0.389098 
-0.161726 -0.024907 0.390623 
-0.163257 -0.018104 0.391323 
-0.159786 -0.013222 0.391323 
-0.155768 -0.011017 0.391209 
-0.150502 -0.012265 0.390450 
-0.145038 -0.010281 0.390289 
-0.143414 -0.005466 0.391332 
-0.137810 -0.005048 0.390893 
-0.131410 0.006095 0.388394 
-0.126415 0.006470 0.387726 
-0.124764 -0.000200 0.385214 
-0.122382 -0.007608 0.382857 
-0.125285 -0.012794 0.382193 
-0.120574 -0.017359 0.380603 
-0.110580 -0.018961 0.378780 
-0.101966 -0.025184 0.376657 
-0.101607 -0.037320 0.375165 
-0.110804 -0.042414 0.375763 
-0.116432 -0.042801 0.376469 
-0.116600 -0.048012 0.375881 
-0.115105 -0.055082 0.374864 
-0.118289 -0.063189 0.374391 
-0.125107 -0.063075 0.375478 
-0.132289 -0.059287 0.377169 
-0.137823 -0.053540 0.378788 
-0.142347 -0.054895 0.379681 
-0.149580 -0.058899 0.381412 
-0.159409 -0.061610 0.384834 
-0.167260 -0.054211 0.387516 
-0.167405 -0.043247 0.386936 
-0.163469 -0.039569 0.385671 
-0.159031 -0.032877 0.384721 
-0.161159 -0.030012 0.385319 
-0.170055 -0.023274 0.387452 
-0.173872 -0.013444 0.388387 
-0.165720 -0.008956 0.387633 
-0.162680 -0.004302 0.387944 
-0.154716 -0.007078 0.386900 
-0.147207 -0.005670 0.386539 
-0.145687 0.002293 0.388469 
-0.138238 0.002881 0.388077 
-0.130997 0.013301 0.381906 
-0.126020 0.011221 0.380396 
-0.122756 0.006442 0.378371 
-0.121656 -0.004730 0.375543 
-0.124074 -0.009616 0.374975 
-0.119605 -0.015473 0.373308 
-0.107579 -0.016938 0.371295 
-0.098611 -0.024103 0.369148 
-0.099838 -0.037212 0.367791 
-0.106584 -0.044302 0.367826 
-0.114386 -0.043980 0.368865 
-0.114766 -0.049698 0.368251 
-0.113363 -0.057311 0.367192 
-0.116605 -0.066829 0.366528 
-0.123294 -0.069279 0.367211 
-0.132111 -0.063763 0.369271 
-0.138558 -0.057298 0.371089 
-0.143667 -0.057143 0.372132 
-0.151959 -0.062219 0.373818 
-0.161922 -0.063154 0.376832 
-0.170411 -0.055225 0.379536 
-0.171858 -0.044235 0.379732 
-0.167924 -0.040387 0.378652 
-0.162761 -0.032746 0.377732 
-0.164674 -0.029426 0.378301 
-0.173911 -0.021986 0.380455 
-0.178310 -0.011113 0.381594 
-0.170299 -0.005535 0.380949 
-0.164606 -0.002507 0.380778 
-0.157632 -0.003712 0.380037 
-0.150018 -0.000044 0.380091 
-0.147755 0.007668 0.381723 
-0.139136 0.009047 0.381479 
-0.133695 0.013739 0.363030 
-0.128116 0.013860 0.362290 
-0.125183 0.008033 0.360795 
-0.122205 -0.000899 0.358927 
-0.126493 -0.008106 0.358470 
-0.120312 -0.012852 0.356992 
-0.108128 -0.014651 0.355120 
-0.099965 -0.022243 0.353162 
-0.099628 -0.035966 0.351548 
-0.108535 -0.042506 0.351891 
-0.115906 -0.042499 0.352804 
-0.115522 -0.049036 0.351986 
-0.112188 -0.059163 0.350393 
-0.117964 -0.066193 0.350243 
-0.124669 -0.069339 0.350685 
-0.134347 -0.061380 0.352977 
-0.140648 -0.055794 0.354561 
-0.145694 -0.054706 0.355468 
-0.155578 -0.064564 0.356217 
-0.165774 -0.063793 0.358427 
-0.177124 -0.057191 0.361384 
-0.175311 -0.042847 0.361821 
-0.170528 -0.038619 0.361225 
-0.163871 -0.030590 0.360804 
-0.168185 -0.027649 0.361756 
-0.180110 -0.019436 0.364327 
-0.179602 -0.009557 0.365031 
-0.176239 -0.000885 0.365377 
-0.167936 0.000615 0.364621 
-0.159863 -0.001613 0.363474 
-0.152492 0.002809 0.363286 
-0.149992 0.009844 0.364132 
-0.141386 0.011053 0.363446 
-0.135938 0.016111 0.344657 
-0.130838 0.014738 0.343834 
-0.127820 0.009329 0.342751 
-0.125769 -0.000553 0.341264 
-0.128964 -0.006404 0.340972 
-0.123116 -0.011215 0.339636 
-0.109867 -0.012542 0.337780 
-0.103149 -0.020338 0.336031 
-0.103450 -0.033556 0.334549 
-0.112017 -0.039842 0.334796 
-0.118297 -0.040400 0.335449 
-0.119297 -0.045643 0.334888 
-0.117908 -0.053164 0.333747 
-0.121250 -0.062466 0.332783 
-0.128350 -0.063932 0.333243 
-0.136494 -0.060508 0.334725 
-0.142992 -0.052305 0.336850 
-0.147801 -0.051589 0.337624 
-0.156818 -0.059666 0.337766 
-0.167628 -0.061175 0.339363 
-0.176537 -0.052506 0.341964 
-0.176852 -0.040403 0.343469 
-0.171059 -0.035801 0.343164 
-0.164999 -0.028330 0.343200 
-0.169897 -0.025588 0.344227 
-0.179346 -0.017866 0.346428 
-0.182101 -0.007520 0.347871 
-0.176115 -0.000704 0.347751 
-0.170182 0.002517 0.347305 
-0.161054 -0.000959 0.345769 
-0.154002 0.002979 0.345300 
-0.152221 0.011678 0.346076 
-0.143664 0.013864 0.345313 
-0.138793 0.012952 0.329236 
-0.134132 0.012232 0.328574 
-0.132172 0.005944 0.327646 
-0.129441 -0.001163 0.326506 
-0.132088 -0.006164 0.326291 
-0.127995 -0.011274 0.325142 
-0.116541 -0.012359 0.323527 
-0.111603 -0.019094 0.322102 
-0.111647 -0.030216 0.320738 
-0.119322 -0.035303 0.320896 
-0.122502 -0.037140 0.320975 
-0.123031 -0.042262 0.320239 
-0.121544 -0.049462 0.318930 
-0.127009 -0.054217 0.318490 
-0.132468 -0.056660 0.318448 
-0.139832 -0.051814 0.320315 
-0.145046 -0.046764 0.322053 
-0.149447 -0.047777 0.322487 
-0.157518 -0.054442 0.322367 
-0.166499 -0.054601 0.323906 
-0.174252 -0.047094 0.326621 
-0.175046 -0.036786 0.328482 
-0.169293 -0.032410 0.328302 
-0.165151 -0.026216 0.328604 
-0.168188 -0.023564 0.329448 
-0.175624 -0.017043 0.331424 
-0.178477 -0.008239 0.332814 
-0.174339 -0.001841 0.332793 
-0.167883 -0.000132 0.331992 
-0.161997 -0.000719 0.331081 
-0.155055 0.002269 0.330354 
-0.153164 0.009006 0.330702 
-0.145605 0.010412 0.329843 
-0.141745 0.006341 0.317923 
-0.137635 0.007167 0.317442 
-0.136157 0.001817 0.316716 
-0.134833 -0.004972 0.315805 
-0.136382 -0.008225 0.315656 
-0.132588 -0.011900 0.314654 
-0.123599 -0.012898 0.313288 
-0.117912 -0.018188 0.311874 
-0.120067 -0.027139 0.310882 
-0.124253 -0.032169 0.310549 
-0.128892 -0.032487 0.311022 
-0.129872 -0.035997 0.310478 
-0.128979 -0.041224 0.309317 
-0.131617 -0.047327 0.308150 
-0.136636 -0.047993 0.308465 
-0.142312 -0.044886 0.309993 
-0.146546 -0.042109 0.311320 
-0.150089 -0.040914 0.312174 
-0.156437 -0.045950 0.311975 
-0.163078 -0.045403 0.313348 
-0.170119 -0.040783 0.315768 
-0.170581 -0.032425 0.317629 
-0.166419 -0.029120 0.317539 
-0.163227 -0.024121 0.317869 
-0.165168 -0.021890 0.318575 
-0.171683 -0.016624 0.320485 
-0.174378 -0.009349 0.321794 
-0.169637 -0.004961 0.321384 
-0.165449 -0.002801 0.320845 
-0.159651 -0.004390 0.319746 
-0.153942 -0.003001 0.318930 
-0.153014 0.003636 0.319324 
-0.147043 0.003647 0.318439 
-0.143830 0.001133 0.310945 
-0.140924 0.000939 0.310483 
-0.139445 -0.002303 0.309940 
-0.138098 -0.007196 0.309193 
-0.140157 -0.010685 0.309094 
-0.137229 -0.013274 0.308279 
-0.129985 -0.013836 0.307107 
-0.126859 -0.017947 0.306078 
-0.127032 -0.024757 0.305013 
-0.130664 -0.028437 0.304802 
-0.134321 -0.028573 0.305260 
-0.135220 -0.031043 0.304867 
-0.133974 -0.035582 0.303673 
-0.136772 -0.038936 0.303163 
-0.139688 -0.041247 0.302883 
-0.144130 -0.039031 0.304154 
-0.147576 -0.035207 0.305750 
-0.150117 -0.033983 0.306503 
-0.154772 -0.037869 0.306313 
-0.159939 -0.037995 0.307277 
-0.165586 -0.034961 0.309210 
-0.165252 -0.028288 0.310723 
-0.163059 -0.026281 0.310720 
-0.160234 -0.022335 0.310940 
-0.161734 -0.020665 0.311531 
-0.167162 -0.016635 0.313242 
-0.168899 -0.011148 0.314294 
-0.164115 -0.008545 0.313649 
-0.161170 -0.006944 0.313244 
-0.157754 -0.007181 0.312583 
-0.153484 -0.005698 0.311948 
-0.152234 -0.002327 0.312028 
-0.147955 -0.001574 0.311370 
-0.146186 -0.007720 0.307086 
-0.144514 -0.007603 0.306805 
-0.143654 -0.009364 0.306443 
-0.143053 -0.012314 0.305950 
-0.144052 -0.014076 0.305874 
-0.142144 -0.015393 0.305341 
-0.138163 -0.015812 0.304604 
-0.136086 -0.018130 0.303897 
-0.136284 -0.022071 0.303238 
-0.138892 -0.023936 0.303290 
-0.140523 -0.024268 0.303488 
-0.140614 -0.026082 0.303125 
-0.140631 -0.027951 0.302716 
-0.141698 -0.030645 0.302251 
-0.143847 -0.030954 0.302523 
-0.146382 -0.029344 0.303354 
-0.148227 -0.027493 0.304123 
-0.149771 -0.027943 0.304303 
-0.152222 -0.029120 0.304483 
-0.155551 -0.029879 0.304944 
-0.158470 -0.027704 0.306061 
-0.158523 -0.024095 0.306879 
-0.156845 -0.022757 0.306814 
-0.155045 -0.020532 0.306885 
-0.156112 -0.019667 0.307256 
-0.158795 -0.017485 0.308176 
-0.160389 -0.014258 0.308998 
-0.157805 -0.012659 0.308694 
-0.156122 -0.011696 0.308483 
-0.154087 -0.011903 0.308056 
-0.151686 -0.010897 0.307721 
-0.151021 -0.008587 0.307872 
-0.148432 -0.008029 0.307456 
-0.148557 -0.019165 0.305914 
-0.148584 -0.019152 0.305921 
-0.148606 -0.019133 0.305929 
-0.148612 -0.019068 0.305941 
-0.148598 -0.019041 0.305944 
-0.148624 -0.019010 0.305954 
-0.148692 -0.019001 0.305968 
-0.148734 -0.018962 0.305983 
-0.148747 -0.018888 0.305998 
-0.148679 -0.018861 0.305990 
-0.148649 -0.018857 0.305985 
-0.148652 -0.018822 0.305992 
-0.148661 -0.018779 0.306001 
-0.148631 -0.018746 0.306001 
-0.148597 -0.018732 0.305997 
-0.148555 -0.018746 0.305987 
-0.148518 -0.018790 0.305972 
-0.148491 -0.018795 0.305967 
-0.148444 -0.018761 0.305964 
-0.148377 -0.018738 0.305955 
-0.148339 -0.018795 0.305938 
-0.148333 -0.018856 0.305926 
-0.148367 -0.018881 0.305928 
-0.148391 -0.018918 0.305926 
-0.148364 -0.018933 0.305919 
-0.148318 -0.018975 0.305903 
-0.148302 -0.019031 0.305890 
-0.148328 -0.019074 0.305887 
-0.148365 -0.019090 0.305891 
-0.148413 -0.019075 0.305903 
-0.148455 -0.019096 0.305907 
-0.148467 -0.019138 0.305902 
-0.148514 -0.019143 0.305910 
0.016551 -0.013055 0.396804 
0.017684 -0.011799 0.396629 
0.019030 -0.012312 0.396256 
0.019905 -0.014563 0.395902 
0.021414 -0.015291 0.395505 
0.021880 -0.017586 0.395324 
0.021734 -0.019918 0.395326 
0.021045 -0.020844 0.395488 
0.021178 -0.022031 0.395460 
0.020295 -0.023868 0.395708 
0.018019 -0.023566 0.396299 
0.016598 -0.022677 0.396656 
0.015207 -0.024034 0.397117 
0.013769 -0.023460 0.397511 
0.012773 -0.022089 0.397720 
0.013108 -0.019611 0.397512 
0.011685 -0.018747 0.397873 
0.011182 -0.016998 0.397973 
0.011562 -0.015821 0.397880 
0.012641 -0.014737 0.397644 
0.013950 -0.012195 0.397484 
0.015552 -0.011755 0.397146 
0.016885 -0.010112 0.398858 
0.018592 -0.008761 0.398604 
0.020728 -0.009201 0.397966 
0.021939 -0.012815 0.397303 
0.024494 -0.013765 0.396600 
0.025344 -0.017370 0.396274 
0.025245 -0.021144 0.396252 
0.023755 -0.022401 0.396602 
0.023703 -0.023995 0.396627 
0.022722 -0.027238 0.396946 
0.019246 -0.027089 0.397925 
0.016940 -0.025058 0.398502 
0.014912 -0.026951 0.399332 
0.012490 -0.026738 0.400201 
0.010662 -0.024809 0.400615 
0.010975 -0.020793 0.400055 
0.008837 -0.019263 0.400594 
0.008424 -0.016449 0.400548 
0.008358 -0.014323 0.400532 
0.010310 -0.012570 0.400140 
0.012799 -0.008873 0.399990 
0.015264 -0.007683 0.399626 
0.016855 -0.005838 0.399215 
0.019436 -0.004140 0.398836 
0.022804 -0.004364 0.397682 
0.024190 -0.010449 0.396543 
0.028450 -0.011544 0.395350 
0.028911 -0.017134 0.395126 
0.029439 -0.022799 0.394990 
0.027241 -0.024738 0.395478 
0.027791 -0.027727 0.395381 
0.025749 -0.032226 0.395962 
0.020372 -0.031763 0.397539 
0.016900 -0.028567 0.398445 
0.013891 -0.031616 0.400051 
0.010599 -0.030595 0.401389 
0.007654 -0.028187 0.402225 
0.008712 -0.021865 0.400543 
0.005047 -0.019888 0.401530 
0.004483 -0.015784 0.401205 
0.004334 -0.012682 0.401072 
0.007657 -0.010501 0.400475 
0.011323 -0.005720 0.400492 
0.014506 -0.002761 0.400574 
0.016236 -0.002494 0.396464 
0.019692 0.000412 0.396084 
0.024138 0.000136 0.394327 
0.026328 -0.007630 0.392813 
0.031469 -0.009553 0.391413 
0.032989 -0.016848 0.391072 
0.032373 -0.024183 0.391228 
0.029099 -0.026368 0.391912 
0.030323 -0.030550 0.391685 
0.027372 -0.035837 0.392411 
0.020796 -0.035907 0.394302 
0.016307 -0.032757 0.395601 
0.012205 -0.036847 0.398091 
0.008207 -0.034288 0.399558 
0.004454 -0.031119 0.400620 
0.005104 -0.023331 0.398420 
0.000111 -0.020624 0.399726 
-0.001009 -0.014973 0.399044 
-0.000181 -0.011114 0.398470 
0.003650 -0.007887 0.397890 
0.008823 -0.001726 0.398170 
0.013342 0.000599 0.398031 
0.015182 -0.000198 0.391387 
0.019315 0.003981 0.390968 
0.024105 0.002442 0.388941 
0.027060 -0.005896 0.387480 
0.032460 -0.008510 0.386153 
0.033635 -0.016774 0.385947 
0.033066 -0.024844 0.386105 
0.030605 -0.028001 0.386612 
0.030920 -0.031957 0.386573 
0.027431 -0.037503 0.387356 
0.020556 -0.038925 0.389203 
0.015304 -0.034124 0.390549 
0.010825 -0.038255 0.392780 
0.005270 -0.038173 0.395451 
0.002305 -0.032291 0.395354 
0.001881 -0.024421 0.393923 
-0.003084 -0.021002 0.395018 
-0.003814 -0.014684 0.394234 
-0.003191 -0.010306 0.393690 
0.001314 -0.006908 0.392968 
0.006016 0.001865 0.393498 
0.011712 0.003949 0.393188 
0.012790 -0.000184 0.379228 
0.017027 0.004805 0.378574 
0.022350 0.003696 0.377112 
0.024775 -0.006055 0.376341 
0.029886 -0.008806 0.375254 
0.031749 -0.016822 0.374923 
0.032718 -0.025605 0.374786 
0.028656 -0.028210 0.375576 
0.028719 -0.031996 0.375574 
0.026222 -0.039184 0.376057 
0.018502 -0.039929 0.377728 
0.013032 -0.034692 0.378969 
0.008181 -0.039492 0.380492 
0.002699 -0.038320 0.382092 
-0.001415 -0.033716 0.382923 
-0.000713 -0.024612 0.382006 
-0.006105 -0.021167 0.383133 
-0.007041 -0.014570 0.382920 
-0.005415 -0.010375 0.382411 
-0.001832 -0.006276 0.381710 
0.003401 0.002140 0.381162 
0.009300 0.003168 0.380209 
0.010358 -0.000469 0.366818 
0.014298 0.003204 0.366039 
0.019168 0.001788 0.365024 
0.021336 -0.007245 0.364585 
0.027989 -0.008637 0.363261 
0.029877 -0.016863 0.362936 
0.028945 -0.025122 0.363132 
0.025357 -0.027686 0.363737 
0.026087 -0.031851 0.363551 
0.023014 -0.038099 0.363844 
0.015842 -0.039504 0.365125 
0.010608 -0.034047 0.366530 
0.005820 -0.039252 0.367544 
0.000943 -0.037070 0.368816 
-0.003662 -0.033551 0.369937 
-0.001874 -0.024101 0.369500 
-0.007615 -0.021082 0.370737 
-0.008592 -0.014806 0.370833 
-0.006988 -0.010819 0.370411 
-0.004033 -0.006537 0.369718 
0.001418 0.001053 0.368562 
0.006861 0.002830 0.367525 
0.008401 -0.002722 0.356637 
0.011942 0.000963 0.355864 
0.015883 -0.001361 0.355110 
0.018965 -0.007703 0.354531 
0.023425 -0.010114 0.353646 
0.024219 -0.017163 0.353466 
0.024758 -0.024353 0.353258 
0.021399 -0.026518 0.353696 
0.022722 -0.030774 0.353248 
0.019702 -0.036336 0.353072 
0.013010 -0.036792 0.354263 
0.008544 -0.032120 0.355938 
0.004110 -0.037677 0.356584 
0.000155 -0.034738 0.357988 
-0.002944 -0.030718 0.359078 
-0.002889 -0.023678 0.359384 
-0.006749 -0.020664 0.360379 
-0.008883 -0.015193 0.360837 
-0.006994 -0.011781 0.360308 
-0.003722 -0.008518 0.359432 
0.001076 -0.002579 0.358127 
0.005191 0.000716 0.357192 
0.007007 -0.005518 0.349354 
0.009812 -0.003247 0.348678 
0.013359 -0.003993 0.347955 
0.015289 -0.010039 0.347587 
0.018682 -0.011965 0.346858 
0.019797 -0.017400 0.346513 
0.019392 -0.022920 0.346291 
0.017228 -0.024814 0.346505 
0.018353 -0.028293 0.345902 
0.016117 -0.033069 0.345408 
0.010446 -0.032332 0.346820 
0.007048 -0.029179 0.348357 
0.003577 -0.033233 0.348756 
0.000412 -0.031246 0.350127 
-0.002118 -0.028220 0.351310 
-0.001787 -0.022460 0.351707 
-0.005670 -0.020266 0.352922 
-0.006477 -0.015893 0.353165 
-0.005635 -0.013018 0.352838 
-0.002424 -0.010747 0.351879 
0.000961 -0.005494 0.350705 
0.004595 -0.003964 0.349812 
0.006168 -0.008831 0.344921 
0.008201 -0.007472 0.344380 
0.010872 -0.007758 0.343759 
0.012084 -0.012409 0.343470 
0.015223 -0.013384 0.342718 
0.016139 -0.017592 0.342331 
0.016035 -0.021991 0.341975 
0.013879 -0.023215 0.342278 
0.014389 -0.025556 0.341808 
0.013014 -0.029434 0.341294 
0.008805 -0.029220 0.342452 
0.006123 -0.027036 0.343764 
0.003629 -0.028923 0.344226 
0.000974 -0.028215 0.345316 
-0.000789 -0.025708 0.346347 
-0.000845 -0.021542 0.346835 
-0.003114 -0.019695 0.347706 
-0.004304 -0.016417 0.348153 
-0.002922 -0.014473 0.347690 
-0.001349 -0.012299 0.347130 
0.001785 -0.008960 0.346059 
0.004305 -0.007275 0.345316 
0.005787 -0.012701 0.342733 
0.006925 -0.012213 0.342411 
0.008595 -0.011980 0.341956 
0.009176 -0.014886 0.341733 
0.010768 -0.015560 0.341274 
0.011590 -0.017844 0.340908 
0.011276 -0.020303 0.340747 
0.010188 -0.021050 0.340948 
0.010520 -0.022419 0.340664 
0.009569 -0.024337 0.340604 
0.007263 -0.024260 0.341315 
0.005757 -0.022953 0.342021 
0.004258 -0.024486 0.342275 
0.002704 -0.024007 0.342904 
0.001500 -0.022729 0.343521 
0.001822 -0.020055 0.343702 
0.000369 -0.019051 0.344281 
-0.000057 -0.017182 0.344515 
0.000324 -0.015931 0.344414 
0.001597 -0.014854 0.344008 
0.003263 -0.012794 0.343476 
0.004694 -0.011706 0.343037 
0.005878 -0.018288 0.342537 
0.005855 -0.018311 0.342542 
0.005830 -0.018297 0.342551 
0.005817 -0.018250 0.342559 
0.005784 -0.018240 0.342570 
0.005773 -0.018196 0.342576 
0.005776 -0.018151 0.342579 
0.005796 -0.018137 0.342573 
0.005792 -0.018114 0.342576 
0.005812 -0.018085 0.342572 
0.005850 -0.018077 0.342561 
0.005879 -0.018102 0.342550 
0.005906 -0.018075 0.342544 
0.005935 -0.018084 0.342534 
0.005957 -0.018108 0.342525 
0.005946 -0.018158 0.342525 
0.005978 -0.018174 0.342514 
0.005987 -0.018209 0.342508 
0.005982 -0.018234 0.342508 
0.005957 -0.018254 0.342515 
0.005927 -0.018297 0.342521 
0.005896 -0.018303 0.342530 
-0.095485 0.149101 0.343748 
-0.093467 0.146977 0.343586 
-0.095015 0.143575 0.342448 
-0.096529 0.141278 0.341670 
-0.100082 0.140612 0.341092 
-0.101720 0.141739 0.341189 
-0.103758 0.141164 0.340886 
-0.105624 0.145124 0.341711 
-0.106482 0.147997 0.342394 
-0.106611 0.151121 0.343189 
-0.104903 0.153508 0.343820 
-0.102696 0.155048 0.344289 
-0.100380 0.155498 0.344580 
-0.098842 0.154305 0.344478 
-0.094716 0.151614 0.344523 
-0.093072 0.149358 0.346343 
-0.090073 0.146062 0.346155 
-0.091754 0.140333 0.344126 
-0.095011 0.137873 0.342981 
-0.100179 0.135478 0.341815 
-0.102862 0.137460 0.342004 
-0.105912 0.137061 0.341677 
-0.108628 0.143298 0.343100 
-0.109727 0.147634 0.344288 
-0.110049 0.152299 0.345646 
-0.107578 0.156032 0.346532 
-0.104054 0.158029 0.346971 
-0.100662 0.159930 0.347591 
-0.098288 0.157352 0.347280 
-0.091568 0.153439 0.347874 
-0.088875 0.150371 0.347443 
-0.085433 0.145372 0.346888 
-0.088053 0.137335 0.343557 
-0.092390 0.133276 0.341853 
-0.100060 0.129451 0.340176 
-0.103818 0.133526 0.340689 
-0.108259 0.132622 0.340139 
-0.112461 0.141344 0.342211 
-0.114626 0.147640 0.344282 
-0.115086 0.154641 0.346743 
-0.111291 0.160308 0.347839 
-0.106009 0.163667 0.348078 
-0.100740 0.165502 0.348421 
-0.097165 0.162512 0.348213 
-0.088090 0.155744 0.349368 
-0.085480 0.151752 0.344970 
-0.080822 0.145367 0.344247 
-0.084156 0.135035 0.339871 
-0.089143 0.128627 0.337688 
-0.099688 0.125412 0.335988 
-0.104875 0.128635 0.336143 
-0.111130 0.127225 0.335298 
-0.116605 0.139671 0.338167 
-0.118794 0.148252 0.341146 
-0.119728 0.157541 0.344788 
-0.114709 0.165195 0.346094 
-0.107412 0.169228 0.345822 
-0.100526 0.173735 0.346279 
-0.096041 0.166961 0.345523 
-0.083275 0.159385 0.348285 
-0.083209 0.153283 0.339677 
-0.076628 0.145932 0.339085 
-0.081272 0.134105 0.334355 
-0.087335 0.127243 0.332166 
-0.099136 0.121392 0.329884 
-0.104697 0.128366 0.330715 
-0.111531 0.126534 0.329716 
-0.118911 0.139261 0.332285 
-0.120903 0.149348 0.335470 
-0.121918 0.160016 0.339282 
-0.116372 0.168925 0.340968 
-0.107716 0.172765 0.340693 
-0.100020 0.177216 0.341233 
-0.094890 0.171011 0.340618 
-0.081706 0.161301 0.342446 
-0.081356 0.155959 0.326782 
-0.074973 0.148439 0.325992 
-0.078670 0.135206 0.322330 
-0.084980 0.127275 0.320105 
-0.098008 0.123489 0.318123 
-0.103707 0.130135 0.318831 
-0.111380 0.126993 0.317451 
-0.117541 0.141796 0.319945 
-0.120080 0.151851 0.322231 
-0.121045 0.162925 0.325056 
-0.114665 0.171131 0.326980 
-0.107409 0.177915 0.328519 
-0.098864 0.179617 0.329161 
-0.093483 0.174519 0.328681 
-0.079797 0.164375 0.328938 
-0.081234 0.158237 0.313291 
-0.073705 0.151031 0.312639 
-0.078041 0.138174 0.309588 
-0.085427 0.132771 0.307809 
-0.096817 0.128622 0.305873 
-0.102470 0.132717 0.305967 
-0.109146 0.131472 0.304854 
-0.116047 0.144577 0.306449 
-0.118420 0.154400 0.308483 
-0.117745 0.164505 0.310989 
-0.113232 0.173572 0.313446 
-0.105282 0.177886 0.315059 
-0.097718 0.182583 0.316579 
-0.092586 0.175729 0.315650 
-0.079266 0.166476 0.315115 
-0.081865 0.159919 0.302162 
-0.076242 0.153589 0.301414 
-0.079978 0.142739 0.298952 
-0.085346 0.136611 0.297216 
-0.095795 0.133018 0.295336 
-0.100836 0.137213 0.295294 
-0.106391 0.136885 0.294128 
-0.113097 0.147782 0.294969 
-0.114468 0.156568 0.297201 
-0.115571 0.166075 0.299731 
-0.110529 0.173661 0.302452 
-0.103463 0.177554 0.304253 
-0.096783 0.181049 0.305524 
-0.092160 0.175747 0.304685 
-0.079695 0.167703 0.303795 
-0.083363 0.160882 0.294036 
-0.079944 0.155677 0.293226 
-0.081887 0.146480 0.291209 
-0.087077 0.142698 0.289873 
-0.095066 0.139192 0.287992 
-0.099204 0.142111 0.287715 
-0.103321 0.142721 0.286755 
-0.108225 0.151404 0.287600 
-0.110018 0.158190 0.289357 
-0.110321 0.165471 0.291773 
-0.105969 0.170617 0.294266 
-0.101506 0.175432 0.296255 
-0.096045 0.177600 0.297198 
-0.092481 0.172602 0.296180 
-0.082383 0.166926 0.295256 
-0.086598 0.160905 0.288782 
-0.082609 0.157043 0.288176 
-0.085561 0.150894 0.286580 
-0.088586 0.147301 0.285402 
-0.094613 0.144739 0.283761 
-0.097488 0.147922 0.283859 
-0.101259 0.146548 0.282375 
-0.104724 0.153880 0.283458 
-0.105632 0.159162 0.285089 
-0.105632 0.164430 0.287047 
-0.102915 0.168556 0.289117 
-0.099228 0.171159 0.290538 
-0.095477 0.173723 0.291584 
-0.092691 0.170432 0.290835 
-0.085792 0.165176 0.289766 
-0.089873 0.160506 0.285925 
-0.088030 0.158332 0.285522 
-0.089338 0.154767 0.284478 
-0.090952 0.152562 0.283683 
-0.094447 0.151050 0.282634 
-0.096104 0.153042 0.282832 
-0.097975 0.152803 0.282287 
-0.100245 0.156471 0.282854 
-0.101042 0.159542 0.283716 
-0.101149 0.162774 0.284857 
-0.099378 0.165102 0.286063 
-0.097328 0.166933 0.287010 
-0.094977 0.167746 0.287533 
-0.093366 0.166026 0.287166 
-0.089088 0.163175 0.286677 
-0.094745 0.159271 0.285010 
-0.094772 0.159312 0.285018 
-0.094754 0.159381 0.285042 
-0.094720 0.159418 0.285058 
-0.094657 0.159447 0.285077 
-0.094626 0.159409 0.285071 
-0.094593 0.159413 0.285077 
-0.094550 0.159347 0.285064 
-0.094540 0.159290 0.285048 
-0.094541 0.159234 0.285031 
-0.094569 0.159192 0.285014 
-0.094606 0.159162 0.284999 
-0.094647 0.159138 0.284985 
-0.094678 0.159168 0.284990 
-0.094754 0.159224 0.284994 
-0.128247 0.048844 0.320282 
-0.127640 0.051516 0.319606 
-0.123880 0.053185 0.318603 
-0.121115 0.052440 0.318379 
-0.117575 0.050729 0.318383 
-0.117681 0.048459 0.318997 
-0.115874 0.047152 0.319183 
-0.118185 0.043241 0.320578 
-0.119867 0.040693 0.321566 
-0.122439 0.038734 0.322457 
-0.125591 0.038377 0.322817 
-0.128176 0.039515 0.322658 
-0.130299 0.040823 0.322493 
-0.130164 0.042901 0.321935 
-0.130581 0.047793 0.320904 
-0.130809 0.051385 0.322407 
-0.129711 0.055650 0.321377 
-0.123656 0.057595 0.319648 
-0.119112 0.057193 0.319010 
-0.113378 0.054328 0.319039 
-0.114088 0.050399 0.320153 
-0.111057 0.048427 0.320424 
-0.114254 0.042127 0.322766 
-0.117326 0.038364 0.324481 
-0.121359 0.035366 0.326048 
-0.126227 0.035132 0.326360 
-0.130375 0.036497 0.326036 
-0.134143 0.038184 0.325795 
-0.133891 0.041599 0.324891 
-0.134586 0.049675 0.323579 
-0.133583 0.053433 0.322369 
-0.132699 0.060529 0.320988 
-0.123590 0.063048 0.317958 
-0.117133 0.061758 0.317237 
-0.109124 0.057571 0.317417 
-0.108993 0.052517 0.318706 
-0.104831 0.049430 0.319180 
-0.109498 0.040053 0.322789 
-0.114718 0.035245 0.325370 
-0.120058 0.030039 0.328536 
-0.127294 0.030132 0.328432 
-0.133442 0.031900 0.327573 
-0.139878 0.033608 0.327136 
-0.139228 0.039042 0.325739 
-0.139051 0.051156 0.324267 
-0.137374 0.055271 0.319128 
-0.135830 0.064368 0.317141 
-0.123812 0.066492 0.313265 
-0.114776 0.067023 0.311922 
-0.104083 0.060882 0.312493 
-0.104318 0.053822 0.314259 
-0.099377 0.049594 0.314929 
-0.106300 0.037719 0.319420 
-0.111442 0.030274 0.323457 
-0.119371 0.025170 0.326873 
-0.128800 0.023562 0.327654 
-0.136982 0.026183 0.325870 
-0.144745 0.029082 0.324604 
-0.144115 0.035944 0.322903 
-0.144573 0.052061 0.321798 
-0.139556 0.055084 0.313143 
-0.137267 0.064393 0.310771 
-0.124222 0.067913 0.306926 
-0.114206 0.068029 0.305792 
-0.102030 0.061508 0.306384 
-0.101580 0.053879 0.308204 
-0.095599 0.049014 0.308917 
-0.102579 0.034557 0.313918 
-0.110072 0.026624 0.318092 
-0.118941 0.019783 0.322332 
-0.129927 0.019139 0.322529 
-0.139689 0.021426 0.321135 
-0.147502 0.025878 0.319366 
-0.145813 0.033921 0.317320 
-0.149161 0.051846 0.316301 
-0.141781 0.052578 0.299358 
-0.138986 0.062012 0.296833 
-0.125204 0.066629 0.293853 
-0.114705 0.066149 0.293038 
-0.101998 0.059298 0.293686 
-0.103626 0.050387 0.295936 
-0.097288 0.045838 0.296494 
-0.103545 0.031286 0.300765 
-0.110758 0.022786 0.304083 
-0.119981 0.015815 0.307265 
-0.131373 0.014192 0.308441 
-0.141764 0.016678 0.308028 
-0.149320 0.022151 0.306730 
-0.149176 0.029687 0.304854 
-0.150908 0.048428 0.301574 
-0.142298 0.048720 0.285269 
-0.139779 0.058063 0.282806 
-0.126310 0.061365 0.280794 
-0.116427 0.061374 0.279976 
-0.103655 0.055578 0.280355 
-0.104613 0.047101 0.282268 
-0.099018 0.042327 0.282716 
-0.104490 0.027624 0.286316 
-0.112519 0.020159 0.289260 
-0.121083 0.012494 0.292366 
-0.131977 0.013121 0.293306 
-0.141121 0.015958 0.293389 
-0.148883 0.020004 0.292915 
-0.147379 0.027721 0.290825 
-0.150822 0.044546 0.287002 
-0.140383 0.043886 0.274007 
-0.139186 0.052940 0.271642 
-0.127256 0.055996 0.269950 
-0.118834 0.055121 0.269444 
-0.108286 0.049847 0.269673 
-0.108308 0.043005 0.270915 
-0.103927 0.038632 0.270977 
-0.108415 0.025879 0.273694 
-0.114422 0.018365 0.276637 
-0.122919 0.013840 0.279459 
-0.132194 0.013646 0.281035 
-0.140445 0.015656 0.281623 
-0.147796 0.018757 0.281439 
-0.146096 0.025909 0.279306 
-0.148395 0.040668 0.275338 
-0.138307 0.039885 0.266047 
-0.136836 0.046221 0.264223 
-0.127976 0.050039 0.262522 
-0.120720 0.050258 0.261769 
-0.112680 0.044835 0.261936 
-0.113046 0.039138 0.262882 
-0.108945 0.035721 0.262449 
-0.113289 0.025622 0.264786 
-0.117747 0.019311 0.267308 
-0.124594 0.015726 0.270092 
-0.132299 0.014619 0.272181 
-0.138917 0.017053 0.272762 
-0.144868 0.019597 0.272690 
-0.143348 0.025490 0.270729 
-0.144117 0.037191 0.267135 
-0.136716 0.037165 0.261197 
-0.135356 0.041964 0.259699 
-0.128463 0.044778 0.258288 
-0.123365 0.043847 0.257892 
-0.117429 0.040175 0.257679 
-0.116955 0.036379 0.258177 
-0.113741 0.033726 0.257667 
-0.117280 0.025978 0.259701 
-0.121524 0.022076 0.261856 
-0.126155 0.018868 0.264057 
-0.131752 0.018325 0.265783 
-0.136769 0.019731 0.266518 
-0.141192 0.021659 0.266587 
-0.139777 0.026201 0.264942 
-0.141462 0.035046 0.262153 
-0.133395 0.033970 0.259050 
-0.132917 0.037055 0.258089 
-0.128823 0.038361 0.257181 
-0.125732 0.038306 0.256701 
-0.122102 0.036120 0.256465 
-0.122425 0.033571 0.257035 
-0.120670 0.032108 0.256832 
-0.122876 0.027929 0.258229 
-0.125031 0.025592 0.259364 
-0.127498 0.023085 0.260674 
-0.130760 0.023417 0.261511 
-0.133484 0.024318 0.261908 
-0.135802 0.025531 0.261989 
-0.135744 0.027661 0.261314 
-0.135817 0.032807 0.259706 
-0.128977 0.030743 0.259219 
-0.128990 0.030693 0.259235 
-0.129063 0.030668 0.259257 
-0.129118 0.030669 0.259268 
-0.129177 0.030713 0.259269 
-0.129183 0.030751 0.259260 
-0.129211 0.030778 0.259259 
-0.129174 0.030855 0.259231 
-0.129134 0.030901 0.259211 
-0.129085 0.030937 0.259191 
-0.129028 0.030937 0.259180 
-0.128975 0.030926 0.259172 
-0.128926 0.030906 0.259166 
-0.128934 0.030861 0.259180 
-0.128931 0.030764 0.259204 
-0.137948 0.126869 0.254491 
-0.134466 0.126434 0.254193 
-0.132895 0.121967 0.253221 
-0.133107 0.118676 0.252691 
-0.135512 0.114993 0.252399 
-0.137886 0.114635 0.252614 
-0.139408 0.112591 0.252555 
-0.144359 0.114700 0.253493 
-0.147254 0.117061 0.254220 
-0.149575 0.119980 0.254928 
-0.150370 0.123576 0.255417 
-0.149446 0.126833 0.255609 
-0.148163 0.129776 0.255808 
-0.145318 0.129438 0.255478 
-0.139190 0.129928 0.255168 
-0.135709 0.129465 0.257396 
-0.130399 0.128645 0.257006 
-0.128018 0.121755 0.255195 
-0.127389 0.116294 0.254141 
-0.131727 0.110557 0.253748 
-0.135535 0.109969 0.254095 
-0.138017 0.106841 0.254051 
-0.145935 0.110034 0.255689 
-0.150842 0.113592 0.257117 
-0.154456 0.118463 0.258442 
-0.154666 0.124145 0.258855 
-0.153313 0.129091 0.258935 
-0.151194 0.133330 0.259059 
-0.147315 0.133477 0.258727 
-0.137826 0.133657 0.258517 
-0.132853 0.133485 0.258018 
-0.125763 0.131614 0.257313 
-0.120772 0.121834 0.254130 
-0.122322 0.114340 0.252914 
-0.127452 0.105521 0.252277 
-0.132705 0.104068 0.252661 
-0.136768 0.100872 0.252798 
-0.147771 0.105590 0.255208 
-0.154937 0.110120 0.257608 
-0.160955 0.116798 0.260207 
-0.162039 0.125449 0.260740 
-0.160048 0.133206 0.260231 
-0.156384 0.139367 0.259839 
-0.149774 0.138166 0.259156 
-0.135784 0.140698 0.260404 
-0.130504 0.137698 0.254619 
-0.120479 0.135612 0.253681 
-0.113951 0.122319 0.249065 
-0.114893 0.111698 0.247572 
-0.123243 0.100531 0.247158 
-0.130705 0.099561 0.247775 
-0.135651 0.094329 0.247753 
-0.150631 0.099854 0.250840 
-0.159671 0.106790 0.254251 
-0.167213 0.115697 0.257851 
-0.167731 0.126809 0.257957 
-0.165021 0.136424 0.256931 
-0.161103 0.144822 0.256248 
-0.153187 0.144306 0.255598 
-0.134478 0.147093 0.257916 
-0.129622 0.140573 0.247781 
-0.116982 0.138976 0.246747 
-0.111359 0.123011 0.242031 
-0.112999 0.111366 0.240723 
-0.121172 0.098039 0.240125 
-0.129720 0.096945 0.240802 
-0.135347 0.090803 0.240723 
-0.151835 0.099109 0.243935 
-0.163004 0.105204 0.247468 
-0.171227 0.115606 0.251056 
-0.171348 0.128075 0.251196 
-0.171056 0.140429 0.251119 
-0.164208 0.148421 0.249797 
-0.156070 0.149253 0.249183 
-0.134417 0.150813 0.250894 
-0.130984 0.142403 0.231298 
-0.119060 0.140284 0.230066 
-0.113842 0.124487 0.227147 
-0.111497 0.111709 0.225543 
-0.120676 0.097339 0.224956 
-0.131311 0.098891 0.226034 
-0.136213 0.089942 0.225550 
-0.154493 0.097713 0.228237 
-0.165109 0.106255 0.230807 
-0.172943 0.117230 0.233313 
-0.173952 0.129930 0.234412 
-0.173070 0.142383 0.235058 
-0.167068 0.151686 0.234825 
-0.156884 0.149623 0.233721 
-0.135927 0.152911 0.233360 
-0.132582 0.143950 0.214506 
-0.121803 0.141159 0.213250 
-0.116120 0.126075 0.211084 
-0.115661 0.114358 0.209852 
-0.123238 0.100233 0.209117 
-0.132655 0.100185 0.209756 
-0.138202 0.093646 0.209329 
-0.155372 0.101185 0.211295 
-0.164922 0.109279 0.213410 
-0.173741 0.118998 0.215753 
-0.176009 0.131700 0.217529 
-0.171024 0.141844 0.218084 
-0.167533 0.151982 0.218642 
-0.158420 0.151210 0.217620 
-0.137911 0.153018 0.215932 
-0.136040 0.142135 0.200656 
-0.124719 0.141383 0.199471 
-0.119093 0.127406 0.197580 
-0.120408 0.117085 0.196638 
-0.127697 0.105362 0.195911 
-0.135711 0.105194 0.196192 
-0.140561 0.099762 0.195399 
-0.155904 0.104636 0.196461 
-0.164320 0.112272 0.198808 
-0.171942 0.121081 0.201380 
-0.172167 0.132113 0.203394 
-0.171480 0.142717 0.204866 
-0.165775 0.149642 0.204923 
-0.158299 0.149601 0.203941 
-0.140105 0.151270 0.201831 
-0.138997 0.140204 0.190737 
-0.130301 0.139264 0.189649 
-0.125586 0.128344 0.188102 
-0.126772 0.120219 0.187283 
-0.132088 0.110446 0.186277 
-0.138398 0.109876 0.186265 
-0.142824 0.107066 0.185582 
-0.154969 0.110125 0.186202 
-0.161983 0.116174 0.188412 
-0.166942 0.123643 0.190985 
-0.168527 0.132327 0.193273 
-0.165946 0.139770 0.194420 
-0.163795 0.147130 0.195022 
-0.156839 0.145901 0.193804 
-0.142354 0.147487 0.191682 
-0.141659 0.137864 0.184638 
-0.135022 0.137176 0.183687 
-0.132678 0.128925 0.182509 
-0.132872 0.123025 0.181718 
-0.136146 0.115208 0.180557 
-0.141532 0.115904 0.180810 
-0.144155 0.111540 0.179605 
-0.153139 0.116397 0.181060 
-0.158560 0.120266 0.182588 
-0.162747 0.125580 0.184651 
-0.164174 0.132133 0.186694 
-0.162867 0.138191 0.187910 
-0.160181 0.142954 0.188227 
-0.155073 0.142163 0.187240 
-0.144142 0.143488 0.185468 
-0.144588 0.134434 0.181546 
-0.141320 0.133670 0.180986 
-0.139606 0.129255 0.180121 
-0.139642 0.125920 0.179552 
-0.141411 0.121420 0.178758 
-0.144321 0.121470 0.178925 
-0.146144 0.120092 0.178631 
-0.151060 0.122332 0.179512 
-0.154352 0.124329 0.180337 
-0.156527 0.127493 0.181487 
-0.156925 0.131065 0.182527 
-0.156442 0.134418 0.183262 
-0.155235 0.137385 0.183654 
-0.152301 0.136963 0.183108 
-0.146019 0.137534 0.182170 
-0.148229 0.129230 0.181124 
-0.148293 0.129240 0.181133 
-0.148324 0.129324 0.181155 
-0.148330 0.129389 0.181170 
-0.148282 0.129460 0.181179 
-0.148232 0.129460 0.181174 
-0.148202 0.129491 0.181177 
-0.148109 0.129456 0.181159 
-0.148051 0.129413 0.181143 
-0.148001 0.129358 0.181126 
-0.148002 0.129290 0.181111 
-0.148011 0.129228 0.181099 
-0.148032 0.129171 0.181089 
-0.148089 0.129181 0.181098 
-0.148206 0.129164 0.181107 
-0.028173 0.159279 0.333568 
-0.028124 0.162038 0.333142 
-0.024421 0.162743 0.332319 
-0.021482 0.162725 0.331818 
-0.017893 0.160367 0.331691 
-0.017764 0.158174 0.332087 
-0.016127 0.156755 0.332146 
-0.017139 0.152990 0.333102 
-0.018849 0.150770 0.333860 
-0.021208 0.149042 0.334600 
-0.024313 0.149518 0.334855 
-0.027295 0.150015 0.335121 
-0.029754 0.151510 0.335151 
-0.029605 0.153749 0.334717 
-0.030622 0.158576 0.334151 
-0.030568 0.161474 0.335607 
-0.030146 0.165393 0.334985 
-0.024665 0.167106 0.333454 
-0.020227 0.166204 0.332783 
-0.014705 0.162866 0.332536 
-0.013640 0.159851 0.332957 
-0.011410 0.157449 0.333148 
-0.013894 0.151865 0.334789 
-0.016419 0.148677 0.336014 
-0.019811 0.146105 0.337235 
-0.024462 0.145838 0.337807 
-0.028998 0.147113 0.337918 
-0.032952 0.149257 0.337912 
-0.032927 0.152669 0.337300 
-0.034745 0.160510 0.336754 
-0.034149 0.164071 0.335884 
-0.033928 0.170587 0.335047 
-0.025289 0.172410 0.332320 
-0.018576 0.171243 0.331292 
-0.010610 0.165876 0.331121 
-0.009416 0.161314 0.331793 
-0.004960 0.157990 0.331874 
-0.008234 0.149191 0.334496 
-0.012401 0.144372 0.336727 
-0.017813 0.140762 0.338856 
-0.024965 0.140025 0.339711 
-0.031837 0.142345 0.339258 
-0.038134 0.145331 0.338968 
-0.037998 0.150635 0.338076 
-0.040025 0.162511 0.337830 
-0.037787 0.165966 0.333179 
-0.037291 0.174200 0.331973 
